# .PCD v0.7 - Point Cloud Data file format
VERSION 0.7
FIELDS x y z
SIZE 4 4 4
TYPE F F F
COUNT 1 1 1
WIDTH 1547
HEIGHT 1
VIEWPOINT 0 0 0 1 0 0 0
POINTS 1547
DATA ascii
0.62384546 0.67955059 4.430831
0.66074359 0.64999098 4.1281581
0.71671689 0.64443451 4.0545335
0.78038019 0.64639819 4.0520854
0.85276484 0.65438664 4.1057863
0.90986234 0.65185809 4.0614934
0.9589054 0.64548069 3.9821777
1.017374 0.6453861 3.9613025
1.0822642 0.64879835 3.972651
1.1159869 0.63755888 3.8508472
1.1817808 0.6419515 3.8715091
1.2390066 0.64255339 3.8578925
1.3165449 0.65131193 3.9173932
1.3406172 0.63941485 3.7924283
1.5155334 0.68273252 4.157855
1.5811387 0.68510848 4.1587911
1.5124556 0.64341837 3.7730939
1.6007177 0.65465361 3.8532414
1.6832789 0.66348428 3.9117353
1.6911427 0.64996356 3.776366
1.7414315 0.64951688 3.7548268
2.4855599 0.83923727 5.3627968
1.4600303 0.54776824 2.8523111
1.4753157 0.54179728 2.7885003
1.529604 0.54601288 2.8113499
1.5504379 0.54195172 2.7643874
1.5835291 0.54109216 2.7446637
1.606811 0.53809714 2.7073293
1.6343015 0.53627455 2.6800649
1.7568527 0.55546331 2.8265657
1.7526674 0.54667938 2.7417924
1.806561 0.55052537 2.7611492
1.9394085 0.57044321 2.9112928
1.9598253 0.56704271 2.8709564
2.0795026 0.58334166 2.9900787
2.1012583 0.58020991 2.9519231
2.0966694 0.57229364 2.8758023
2.2373459 0.5916369 3.0176358
2.1455772 0.56807911 2.8177574
2.2117724 0.57362384 2.8495886
2.2758274 0.57865596 2.8771181
-1.8380263 0.44989485 2.6170218
-1.9391723 0.46811301 2.8018622
-1.8598619 0.46556419 2.7568407
-1.6793132 0.45026612 2.5735111
-1.6472808 0.45288503 2.5863876
-1.5496808 0.44699043 2.5075045
-1.5718967 0.4568007 2.5975549
-1.5207827 0.45693809 2.583694
-1.4749545 0.45774812 2.5771141
-1.4417051 0.4603712 2.5896676
-1.4231192 0.46529818 2.6261473
-1.3697658 0.46498555 2.6077967
-1.3647138 0.47239238 2.6693676
-1.3374947 0.47647882 2.6961532
-1.3090878 0.48053545 2.7223349
-1.2542759 0.48002291 2.7018538
-1.2516599 0.48908222 2.7782085
-1.2059065 0.49036533 2.7756782
-1.1920623 0.49802381 2.8368065
-1.1697196 0.50438589 2.8843982
-1.1443548 0.51047349 2.9287658
-1.1082538 0.51450437 2.9524662
-1.1382556 0.53429741 3.1297925
-1.1010982 0.53917897 3.1604247
-1.0569365 0.5425415 3.1760645
-0.96966445 0.53444713 3.0814917
-0.89711654 0.52953792 3.0183642
-1.7405068 0.79570675 5.5323534
-1.748013 0.82876164 5.815968
-2.0259721 0.9542973 6.9664302
-1.5676444 0.83715403 5.8343759
-1.4408059 0.82794106 5.7186437
-1.7266703 0.97959739 7.0938044
-1.6507306 0.99923819 7.2386818
-1.1553065 0.83216983 5.670691
-1.5135217 1.0527875 7.6542182
-0.97152793 0.83687824 5.6567321
-1.001724 0.9086346 6.2764964
-0.92222798 0.92490965 6.391675
-0.73255074 0.86781377 5.849822
-0.62645388 0.86103505 5.7609143
-0.50508988 0.83840555 5.5325737
-0.41424155 0.83856088 5.5071812
-0.3227545 0.83695716 5.4666252
-0.23616701 0.84027398 5.4693999
-0.16618603 0.87251657 5.7233138
-0.067019373 0.85650259 5.5578208
0.020814717 0.86061794 5.5670271
0.10809752 0.86982268 5.6197228
0.19819358 0.82552296 5.2160916
0.2866841 0.88051093 5.6582003
0.37664706 0.88512349 5.6710129
0.46985692 0.89733928 5.7476015
0.49822608 0.77796292 4.7229691
0.5691725 0.77482688 4.6754084
0.61692762 0.74349785 4.3946524
0.65836626 0.71479368 4.1380992
0.71460468 0.70826352 4.0659666
0.77937716 0.71110481 4.0711093
0.85125464 0.71943104 4.1208572
0.91523296 0.72103792 4.1157231
0.96580088 0.71392131 4.040267
1.0186253 0.70957702 3.9877498
1.042357 0.68957251 3.810467
1.0859759 0.68298888 3.7415917
1.1669147 0.69617277 3.8300285
1.1705148 0.6714502 3.6184993
1.0986049 0.61554819 3.1637332
1.2858124 0.67617244 3.6247964
1.184505 0.61361808 3.1220422
1.226898 0.61279863 3.1025991
1.256222 0.60730606 3.0472164
1.3236418 0.61607432 3.1020377
1.6174275 0.70257092 3.7520196
1.6431233 0.69361603 3.6682286
1.6773657 0.68817633 3.6118488
1.8263079 0.71892023 3.8297839
1.4473369 0.58881003 2.8335545
1.4673924 0.58331031 2.7808356
1.4858129 0.57776433 2.7282043
1.5392315 0.58226204 2.7507868
1.5682042 0.5800485 2.7234223
1.6002131 0.57882577 2.7036002
1.6211406 0.57492644 2.6642492
1.7408278 0.59578639 2.8066416
1.7235358 0.58256328 2.6991539
1.7790819 0.58725023 2.7227213
1.9490429 0.61824906 2.9366455
1.9922981 0.61930954 2.9329548
1.9214323 0.59512728 2.7479222
2.1032119 0.62679774 2.9640884
2.1509957 0.62878633 2.9669669
2.2465203 0.64071429 3.0404234
2.1023674 0.60323763 2.763762
2.1293311 0.60155374 2.7414978
2.3409207 0.63638961 2.9758458
-1.6237456 0.46228004 2.3496976
-1.6824182 0.47682112 2.4742091
-1.684134 0.48403108 2.5288801
-1.6733181 0.48973954 2.5690227
-1.6330098 0.49129015 2.5702803
-1.5214696 0.48193604 2.4711344
-1.578279 0.49848169 2.6102426
-1.5147128 0.49639386 2.5781307
-1.4699962 0.49723947 2.572948
-1.4339949 0.49954551 2.5809996
-1.4182718 0.50549799 2.6217105
-1.3649501 0.50485587 2.6031177
-1.3619707 0.51357913 2.667958
-1.3298666 0.51709914 2.6861455
-1.2939681 0.51998824 2.6986091
-1.2489588 0.52107066 2.6951311
-1.2354429 0.52891898 2.7506711
-2.3604538 0.79193097 5.0192409
-2.2786329 0.7943728 5.0164862
-2.1770809 0.7920264 4.9726238
-2.1571889 0.80971658 5.100543
-1.2005763 0.5845139 3.1598127
-1.2509423 0.61359739 3.3915575
-1.1984079 0.6158945 3.3952739
-1.1091659 0.6073603 3.3080502
-1.0290087 0.6006667 3.2370157
-0.89771736 0.57655019 3.0217392
-1.7047989 0.86963481 5.4344254
-1.6595166 0.88747823 5.5569406
-2.1889937 1.1242627 7.4745231
-1.4528483 0.88182038 5.46104
-1.3511539 0.87860298 5.4105906
-1.8540609 1.1469004 7.5583282
-1.7218614 1.1454353 7.5131841
-1.0986898 0.89057207 5.4354439
-1.515391 1.1719102 7.6590109
-0.92437065 0.8956719 5.428803
-1.0054998 1.0074351 6.2903419
-0.92456877 1.0244391 6.3973408
-0.72501206 0.95115477 5.7946429
-0.60462308 0.92952681 5.6008973
-0.48355943 0.9008953 5.3543038
-0.39710426 0.90207225 5.3408403
-0.31401098 0.90703589 5.3567233
-0.22741824 0.90724492 5.3359427
-0.15271151 0.92931807 5.4826756
-0.060665548 0.91876787 5.3795662
0.024673149 0.92087317 5.3733721
0.10932384 0.92611063 5.390913
0.19489217 0.91466099 5.2827096
0.28010926 0.9358784 5.4202938
0.36619014 0.94100189 5.4366078
0.45639509 0.95716804 5.5349121
0.49239269 0.8452009 4.6834912
0.56492841 0.84545463 4.666677
0.61844122 0.81838888 4.4492955
0.65354121 0.77652431 4.1253614
0.71154839 0.77112818 4.0698032
0.77236795 0.77021235 4.0472164
0.84304184 0.77870572 4.092854
0.90543759 0.77938551 4.0818596
0.95765972 0.77274853 4.0184617
1.0132904 0.76979625 3.9818983
1.0789328 0.77399838 3.9965591
1.1078343 0.75584614 3.8525715
1.1785023 0.76376116 3.8938601
1.2343981 0.76314414 3.8747919
1.1406727 0.68705338 3.3266895
1.1602821 0.67325634 3.2178566
1.2165278 0.67773765 3.2370429
1.2372648 0.66640979 3.1464911
1.1952399 0.62982124 2.8821485
1.3225037 0.6645835 3.1107521
1.3437331 0.6556831 3.0383306
1.5316371 0.70984906 3.3972208
1.560079 0.70283836 3.3371501
1.4559729 0.65023261 2.9683635
1.4595536 0.63746107 2.871381
1.4825126 0.63191867 2.8237698
1.5355887 0.63635355 2.8434253
1.5750849 0.63644338 2.833905
1.6036946 0.63335782 2.803313
1.6074584 0.6232838 2.7265723
1.628215 0.61863708 2.6862659
1.7599802 0.64501953 2.8506813
1.7846375 0.64127475 2.8161514
1.8315924 0.64366102 2.8219783
1.9298266 0.65922236 2.9136617
1.9577004 0.65643901 2.8855324
1.9758041 0.65143782 2.8432448
2.0332847 0.65621793 2.8643591
2.0814705 0.65867108 2.8703716
2.1499333 0.66579074 2.9062481
2.1500344 0.65715969 2.8413055
2.2023284 0.66055501 2.853344
2.2580223 0.66462928 2.8696115
-1.6096653 0.49683923 2.3352451
-1.6585306 0.51173121 2.4468365
-1.6408173 0.51654541 2.4752102
-1.6706096 0.52943778 2.5689428
-1.6072315 0.52704155 2.5382285
-1.51326 0.51906693 2.4628897
-1.571664 0.53803885 2.6041689
-1.5169523 0.53703505 2.5848305
-1.4737817 0.5380885 2.5820088
-1.4368632 0.54034466 2.5887299
-1.4187413 0.54645151 2.6257215
-1.3669363 0.54581702 2.6095397
-1.3622705 0.55519104 2.6716423
-1.3325491 0.55950791 2.6939044
-1.7162218 0.65886229 3.4516582
-2.4860282 0.85642755 4.9600229
-2.4248316 0.86359924 4.9942923
-2.3428714 0.86580098 4.9902949
-2.2617185 0.86816609 4.9875846
-2.1702549 0.86767465 4.9632535
-2.1422203 0.88493514 5.0731335
-1.3144983 0.66719019 3.4154618
-1.2706317 0.67227674 3.4396605
-1.2089119 0.67190647 3.4229817
-2.7692349 1.2142583 7.4366441
-0.95937908 0.62638545 3.0588553
-0.90317345 0.62524056 3.038223
-1.7080662 0.95512694 5.4464059
-1.642072 0.96647829 5.50774
-1.4974513 0.9451918 5.3310485
-1.4324512 0.95700967 5.3957558
-1.3294036 0.95171332 5.3363795
-1.2574443 0.96112692 5.3832841
-1.1577767 0.9564079 5.328577
-1.0834064 0.96522146 5.370882
-0.9887836 0.96231174 5.3295269
-0.91281271 0.9709596 5.3703489
-0.81369007 0.9636988 5.2986364
-0.7361182 0.97167933 5.3345938
-0.68248838 1.0016967 5.5245652
-0.58697927 0.99686766 5.4700708
-0.47819614 0.97542161 5.30054
-0.38711387 0.9692151 5.2377806
-0.31301832 0.98484004 5.3260546
-0.2247341 0.98055971 5.2769189
-0.1434553 0.98797292 5.3081999
-0.060269445 0.99270195 5.3209534
0.026177749 0.98543733 5.2521291
0.10705568 1.0033028 5.3539433
0.19242933 0.96988529 5.1091127
0.27551126 1.0040039 5.3199553
0.36251694 1.0238045 5.433403
0.44731119 1.0239776 5.4150829
0.4933953 0.92797649 4.7575107
0.56189018 0.91785425 4.6735516
0.61587858 0.88801426 4.4600439
0.65740603 0.84987664 4.1934781
0.71854436 0.84631288 4.1554108
0.81696081 0.88524419 4.3951635
0.85367745 0.85553044 4.1864753
0.92572558 0.86359715 4.2242818
1.0227706 0.89153546 4.3902655
1.0671322 0.87509459 4.2692704
1.1714859 0.9042567 4.4418206
1.2031574 0.88125718 4.2795405
0.94190753 0.67674506 2.9613073
0.9741981 0.67007118 2.9089091
1.0369442 0.68143463 2.971071
1.0939646 0.68876481 3.0073681
1.1266938 0.6831758 2.9621799
1.1699646 0.68337399 2.9535718
1.2152196 0.68462342 2.9515922
1.2716911 0.69092649 2.9810925
1.3240035 0.69508195 2.9970751
1.3467541 0.68680823 2.9360876
1.3736799 0.68090922 2.8901446
1.4514023 0.69513214 2.9681361
1.4653721 0.68472707 2.8948026
1.4728639 0.67273766 2.8122802
1.5227102 0.67642826 2.8256974
1.5441965 0.67033875 2.7797205
1.5803694 0.66954225 2.7660398
1.6110864 0.66711783 2.7426414
1.6517996 0.6680367 2.7394774
1.7234517 0.67843974 2.7931206
1.7495117 0.67482036 2.7627399
1.8005304 0.67870891 2.7772207
1.8734717 0.68871802 2.827913
1.9111462 0.68855244 2.8181391
1.9297144 0.68327367 2.7782965
1.9776486 0.68609452 2.7862914
2.0174065 0.6867345 2.7814679
2.0520916 0.68611771 2.7693398
2.0877666 0.68583411 2.7592301
2.1239619 0.68574852 2.7503352
2.1875868 0.69232863 2.7800586
-1.5960366 0.53085798 2.3213084
-1.9594023 0.60349315 2.8400946
-1.7912035 0.58259809 2.67768
-1.6821953 0.57163566 2.5881743
-1.649459 0.5746935 2.6000755
-1.5410028 0.56287211 2.5054383
-1.5877296 0.58182865 2.6308782
-1.528476 0.57964581 2.6052866
-1.4845874 0.58055073 2.6017323
-1.4470465 0.58282363 2.6078453
-1.4305381 0.58992553 2.6478021
-1.3753278 0.58830035 2.6264527
-1.3783177 0.6005379 2.7018087
-1.3410586 0.60342652 2.711741
-1.3116379 0.60841912 2.7361436
-1.2620318 0.60827476 2.7249978
-1.2554049 0.61982948 2.794194
-2.3049467 0.93262982 4.9217033
-1.1961439 0.63154602 2.853487
-1.1685368 0.63849711 2.8902266
-1.1451132 0.64718276 2.9384251
-1.3050624 0.71692479 3.3974512
-1.2661425 0.72392082 3.4321244
-1.2079567 0.72444868 3.4233088
-2.7668297 1.3286628 7.4359326
-0.96882415 0.67720342 3.0852897
-0.90568757 0.67303491 3.0467682
nan nan nan
-1.7292545 1.0906987 5.767942
-2.8589199 1.6732107 9.5592184
-1.3637615 1.0056175 5.1727066
-1.2733368 1.0039653 5.1439056
-1.952915 1.4353242 7.9189243
-1.1150478 1.0123786 5.1625342
-1.0408539 1.0200244 5.1938772
-0.9511013 1.0176446 5.1607709
-0.87774837 1.0266124 5.2003617
-0.78372133 1.0199203 5.1400366
-0.70822948 1.0277853 5.1724482
-0.6322602 1.036185 5.2080283
-0.54891878 1.0378411 5.2008963
-0.45922565 1.0314512 5.1433129
-0.38066947 1.0378569 5.1661801
-0.30850732 1.0557151 5.2603111
-0.21900702 1.0459527 5.1821713
-0.13701773 1.0480245 5.1778588
-0.05491963 1.049208 5.1680999
0.026586473 1.0514908 5.1651754
0.1047701 1.0795766 5.3205247
0.18929309 1.0529491 5.1404147
0.27000514 1.0536724 5.1281319
0.35744345 1.0975666 5.3781099
0.45886347 1.165199 5.7701707
0.49682528 1.0198028 4.8743501
0.5582751 0.98885506 4.6726294
0.60976428 0.95112169 4.43153
0.65150893 0.90981042 4.1705956
0.71065664 0.90354109 4.1200681
0.80276912 0.93951166 4.3206878
0.84777987 0.91691875 4.1733961
0.91681087 0.92290145 4.1956491
0.98092264 0.9237681 4.1876755
0.79134786 0.70926887 2.916909
1.141996 0.95210731 4.3274212
1.1922461 0.94159228 4.2528057
0.93437135 0.7186166 2.9444034
0.96910775 0.71292257 2.902441
1.0243578 0.72073817 2.9387405
1.0579501 0.71517336 2.8978043
1.5229783 0.95237565 4.2502279
1.158252 0.72375065 2.9294326
1.206152 0.72654343 2.9365778
1.258649 0.73150408 2.9560111
1.3080178 0.73472857 2.9654882
1.3401313 0.72998613 2.9298804
1.3663726 0.72312695 2.8825605
1.4457374 0.73935646 2.965255
1.4616398 0.72862542 2.8964279
1.4837444 0.7211417 2.8461492
1.5426289 0.72835791 2.8780363
1.6112998 0.73889536 2.9281814
1.5791223 0.71236145 2.7727914
1.6065576 0.70839691 2.7429023
1.6215769 0.70046514 2.6913533
1.7141415 0.71895015 2.7850921
1.730225 0.71165347 2.7372015
1.7820877 0.71616834 2.7540436
1.8370816 0.72151619 2.7753248
1.9207166 0.7353853 2.842721
1.9148915 0.72215319 2.7631149
1.9536333 0.72250468 2.7572451
2.0252228 0.73224682 2.8019288
2.0427599 0.72659832 2.763804
2.0908685 0.72958338 2.7720795
2.1075671 0.72410429 2.7351615
2.1776555 0.73291355 2.7744601
-2.4643397 0.73523259 3.4280374
-2.3976235 0.73472452 3.4126556
-1.860286 0.63829011 2.7729745
-1.6880493 0.61306351 2.599683
-1.6535121 0.61593658 2.6092372
-1.5479465 0.60327071 2.518641
-1.5937046 0.62399906 2.6430254
-1.5326064 0.62100518 2.6148148
-1.4895585 0.62206244 2.6126258
-1.4526237 0.62459379 2.6198201
-1.4354854 0.63218158 2.6589806
-1.3773261 0.62947202 2.6329105
-1.382368 0.64343148 2.7118306
-1.3435459 0.64605451 2.7191823
-1.3122003 0.65087759 2.7402284
-1.5880393 0.74635476 3.3253932
-1.2539165 0.66252947 2.7943523
-2.3047023 1.0088423 4.9263029
-2.2342763 1.0140904 4.9423752
-2.101433 0.99841672 4.8298502
-1.3536192 0.76560837 3.3888595
-1.2960286 0.76601291 3.3802907
-1.2614338 0.77501309 3.424058
-1.2067566 0.77667117 3.4230382
-1.1272316 0.76806724 3.3600266
-0.96100605 0.72120261 3.067003
-0.90471125 0.71931565 3.0458784
-0.8616848 0.7233423 3.0602798
-1.4953175 1.0632787 5.0781779
-1.4148077 1.0659575 5.0780029
-1.3351464 1.0690796 5.0804634
-1.2504839 1.0693103 5.0658331
-1.1749756 1.0748806 5.0827494
-1.0945494 1.0775565 5.0825729
-1.0199456 1.084304 5.1062346
-0.93471944 1.0835822 5.0861773
-0.85882282 1.0899005 5.1071987
-0.77172667 1.0868853 5.0739808
-0.69328278 1.0911428 5.0830116
-0.61480886 1.0956428 5.0933919
-0.53565681 1.0996974 5.1011572
-0.45594817 1.1032985 5.1062841
-0.37412131 1.1038855 5.0941768
-0.29496086 1.1084146 5.1045914
-0.21262246 1.106899 5.0806427
-0.1333251 1.1111865 5.0896811
-0.049690157 1.1016325 5.0205903
0.028597042 1.1072338 5.0371571
0.10691009 1.1168257 5.0760088
0.18685696 1.1104294 5.0252495
0.26545137 1.1087012 5.0008187
0.34311244 1.1060859 4.9716077
0.42195749 1.1125529 4.9929047
0.49120533 1.0871817 4.8381701
0.52699268 0.99150175 4.2970085
0.60596961 1.0176514 4.4282207
0.64931267 0.97508866 4.1823316
0.70852482 0.96800405 4.1316266
0.77746779 0.97610492 4.1639109
0.84720021 0.98400205 4.19491
0.91372031 0.98736721 4.2011991
0.73261213 0.74121761 2.8603528
0.78646582 0.75145638 2.9074168
0.83214784 0.75341463 2.9097655
0.87650794 0.75426251 2.9061604
0.92833805 0.76088011 2.933378
0.95705295 0.75037694 2.869312
1.0154169 0.76127076 2.9191868
1.0484751 0.75494504 2.8776381
1.106184 0.76448178 2.9200559
1.1452686 0.76241028 2.9011362
1.1964867 0.76744717 2.9196403
1.2485 0.77262992 2.9388089
1.2979271 0.77620196 2.9494674
1.3325691 0.77229953 2.9211564
1.3614783 0.76605892 2.880863
1.4386358 0.78262305 2.9588759
1.4539112 0.77059448 2.8888168
1.4691851 0.75944239 2.8236537
1.5233291 0.76534116 2.8464208
1.5460018 0.75820845 2.8023174
1.5772989 0.75497788 2.7783883
1.6105784 0.75277424 2.7598217
1.6242275 0.74345094 2.7051792
1.7357076 0.77023435 2.8338194
1.7396199 0.75765097 2.7627981
1.779377 0.75814408 2.7580769
1.7812475 0.74591017 2.6893914
1.9087969 0.7757194 2.8319118
1.9042836 0.76172477 2.7545912
1.9105804 0.75181562 2.6980586
2.035718 0.77903908 2.8265896
2.0485761 0.77129227 2.7809007
2.0756693 0.76813364 2.7581637
2.0819402 0.75911999 2.7066374
2.1843181 0.77785683 2.7920442
-2.4754183 0.79090214 3.4470534
-1.9586732 0.69166237 2.8472073
-1.8729458 0.68412614 2.7936516
-1.6850404 0.65263587 2.5991907
-1.6515726 0.65587479 2.6101015
-1.5251874 0.63672429 2.4897561
-1.591854 0.66442531 2.6438367
-1.5306572 0.6609332 2.6153233
-1.4858803 0.6614691 2.6103725
-1.4501638 0.66439319 2.619276
-1.4337029 0.67273933 2.6594074
-1.3773932 0.67011434 2.636199
-1.3822105 0.68521553 2.7147677
-1.3436481 0.6880061 2.7224939
-1.7121482 0.81818843 3.4561055
-1.2636333 0.6928978 2.7338986
-1.2602217 0.70764464 2.8092272
-2.2854791 1.0783114 4.8939042
-1.1958365 0.71937132 2.8585091
-1.1775571 0.73085022 2.9144542
-1.3707783 0.82430321 3.4288087
-1.3117843 0.82422805 3.4182639
-1.2665913 0.82971609 3.4387343
-1.2110449 0.83102417 3.4359052
-2.8000269 1.5730022 7.5291138
-0.96634746 0.77061927 3.0828161
-0.91531205 0.77106047 3.0763004
nan nan nan
-1.3940456 1.0861033 4.7805338
-2.9643922 2.0267541 9.893281
-1.2482942 1.0943459 4.7978716
-1.1694597 1.0949196 4.787251
-1.0932446 1.0969975 4.7848263
-1.0222758 1.1027606 4.8022747
-0.94795692 1.1063683 4.8080521
-0.87055969 1.1075693 4.8009086
-0.79664207 1.1116192 4.8090305
-0.71497327 1.1084301 4.7785525
-0.63995677 1.111147 4.779623
-0.56646121 1.1156218 4.7900038
-0.49789912 1.1268139 4.835815
-0.42899561 1.1395999 4.8897729
-0.35483962 1.146561 4.9128399
-0.27914432 1.1519341 4.9274683
-0.2048153 1.1613915 4.9633555
-0.12411061 1.156112 4.9222813
-0.04299736 1.1444474 4.8482676
0.031630173 1.1541595 4.8854156
0.10756531 1.1623547 4.9145303
0.18463933 1.161588 4.8973122
0.26066124 1.151749 4.8335748
0.3339417 1.136574 4.7428374
0.40911549 1.1437458 4.7668133
0.48389304 1.1471249 4.7713346
0.55643034 1.1441895 4.7437339
0.62111127 1.125782 4.6378374
0.64674217 1.0397476 4.1905298
0.70670372 1.0330651 4.1458035
0.76803428 1.0304319 4.1216898
0.84135091 1.044564 4.1818166
0.90854818 1.0492296 4.1942654
0.71321875 0.76598066 2.7697594
0.75720239 0.76846957 2.7749991
0.78487104 0.75549001 2.7034178
0.82394254 0.75443518 2.6912606
0.92006975 0.80074149 2.91309
0.93432361 0.7782712 2.7949612
0.95207769 0.76097918 2.7028866
1.0300612 0.78763473 2.8266804
1.0376883 0.76514322 2.709583
1.1062009 0.78343791 2.791966
1.1730039 0.79923534 2.861788
1.1529906 0.76341939 2.6808569
1.2918333 0.81919277 2.9440675
1.315822 0.80920541 2.8885231
1.3503177 0.80549878 2.8635023
1.4076909 0.81358325 2.8952425
1.4407135 0.80948651 2.8684671
1.469682 0.80386651 2.8345485
1.5203377 0.80850589 2.8497095
1.541154 0.79987061 2.8016722
1.5707057 0.79555011 2.7743425
1.5973648 0.790362 2.7430449
1.6096524 0.77975023 2.686301
1.7292652 0.81187642 2.8310893
1.6985885 0.78499126 2.6979687
1.7347132 0.78441846 2.6888001
1.7205003 0.7656281 2.5945163
1.7848186 0.77569449 2.6352632
1.7799764 0.76134664 2.5622358
1.8657931 0.77849412 2.6357334
1.9209927 0.78478944 2.6586375
1.8857048 0.76143157 2.5444691
2.0134404 0.79106557 2.6750295
2.0218558 0.78228939 2.6284018
2.0616679 0.78353333 2.62795
-2.4856114 0.84672379 3.4649742
-2.2238944 0.79915643 3.1962957
-1.8716245 0.72699213 2.7957914
-1.6891227 0.69379598 2.6083095
-1.6556264 0.69720453 2.6192718
-1.543913 0.68005896 2.5196695
-1.5934285 0.70562464 2.6496103
-1.5340858 0.70219499 2.6238163
-1.4915333 0.70329458 2.6223152
-1.4537332 0.70576864 2.6281312
-1.4359586 0.71434975 2.6662881
-1.3791759 0.71121371 2.642302
-1.3836038 0.72740334 2.7203155
-1.3448334 0.73023367 2.727679
-1.7118212 0.87126887 3.4593995
-1.5298276 0.82838792 3.2257516
-1.2601992 0.75073498 2.8121493
-2.4000349 1.1966493 5.1223965
-2.2552538 1.1746539 4.9943876
-1.3159368 0.83116138 3.205055
-1.2734531 0.83622909 3.222513
-1.2288511 0.84062749 3.236439
-1.2715088 0.88453245 3.452868
-1.2123369 0.88413823 3.4415965
-1.1202211 0.86744273 3.3472533
-0.97584999 0.82243967 3.1094403
-0.91891587 0.81980157 3.0878088
-0.8750304 0.8240391 3.1010807
-1.3697745 1.144663 4.7106638
-2.9256415 2.1537333 9.7761707
-1.2284995 1.1543094 4.7343125
-1.1401637 1.1473155 4.6868963
-1.0728074 1.1544698 4.7103729
-1.7566917 1.7459481 7.6433806
-0.9308573 1.1646105 4.7362728
-0.84994638 1.1613584 4.7079039
-0.78142393 1.1690664 4.733839
-0.69977313 1.1639696 4.6965442
-0.62301302 1.163005 4.6797571
-0.55448806 1.1715866 4.7098637
-0.49121732 1.1887363 4.7817192
-0.43399566 1.2188201 4.9162984
-0.36120617 1.2289677 4.9532061
-0.29403061 1.2529752 5.057189
-0.21032697 1.2447088 5.0044322
-0.1319513 1.2472811 5.0042796
-0.045237005 1.2172024 4.8468843
0.029550329 1.2254257 4.8742867
0.10400476 1.2447739 4.9548655
0.18178898 1.235751 4.8994355
0.25741312 1.2182884 4.8040462
0.3299872 1.2005606 4.7078743
0.40530419 1.2125244 4.7530546
0.4820548 1.2247162 4.7990947
0.55002356 1.207124 4.7043018
0.60943961 1.1760547 4.5465078
0.642977 1.1019255 4.1871967
0.70352733 1.0958768 4.1487041
0.76386261 1.0914017 4.1177597
0.83516771 1.1039224 4.1662354
0.90180278 1.1085348 4.1776876
0.95348805 1.0950663 4.1051698
0.76904476 0.82592106 2.8491852
1.1650425 1.1847461 4.4998488
1.1838398 1.138672 4.2768483
0.91586298 0.84336185 2.9091733
0.94145465 0.82862294 2.8347301
0.98362672 0.82881206 2.8289413
1.0327443 0.83437049 2.8476906
1.517126 1.1511275 4.2834406
1.1192951 0.83640832 2.8436878
1.1725743 0.84403527 2.8716545
1.221873 0.8486678 2.8859534
1.2867445 0.86241394 2.9413021
1.3146093 0.85385245 2.8959966
1.3479797 0.84910285 2.8680205
1.4103744 0.86038923 2.9120157
1.4351325 0.85149103 2.8655951
1.4624721 0.84457338 2.828223
1.5213039 0.85350537 2.8615413
1.5589345 0.85199416 2.8483531
1.5761439 0.84131491 2.7946255
1.6063659 0.83711839 2.7697902
1.8299909 0.91693449 3.1154518
1.7400392 0.86049449 2.8602073
1.7380824 0.8431626 2.7777524
1.7849036 0.84629804 2.7852955
1.8616046 0.86102766 2.8434632
1.7377412 0.79864037 2.5651994
1.7343265 0.78406763 2.4961514
1.771402 0.78496158 2.4945376
1.77825 0.77510023 2.4463601
1.8108007 0.77468383 2.4392066
2.0833673 0.8563869 2.7861125
1.8779174 0.7747407 2.428828
1.9394501 0.78403503 2.4634471
-2.4800174 0.89886624 3.4627755
-1.9694054 0.78247035 2.8692222
-1.8750808 0.7710042 2.8042779
-1.6914352 0.73458123 2.615032
-1.6584365 0.7382952 2.6267226
-1.5438267 0.71877241 2.5229077
-1.5962281 0.7471835 2.6571653
-1.5354099 0.74290907 2.6291823
-1.4921771 0.74376392 2.6266325
-1.4552937 0.74660265 2.6338534
-1.4379914 0.75592053 2.6728139
-1.3811744 0.7523964 2.648761
-1.3869959 0.7702719 2.7292404
-1.3484085 0.77329075 2.7370129
-1.7125155 0.92459363 3.4645083
-1.5532881 0.88671935 3.2723889
-1.2656859 0.79588687 2.8254988
-2.3901019 1.2712407 5.1082306
-1.2029581 0.80985081 2.878474
-1.1874881 0.82431382 2.9406223
-1.1558452 0.8324371 2.9721527
-1.2880282 0.91764665 3.3711421
-1.2735583 0.93815899 3.4603832
-1.2111284 0.93593264 3.4412844
-2.8090196 1.8083037 7.562088
-0.96945083 0.86612368 3.0947928
-0.9205668 0.86756694 3.0940337
-0.87686729 0.87210393 3.1078162
nan nan nan
-1.0983118 1.0873752 4.0992699
-1.0347073 1.0900627 4.1018867
-0.97377551 1.0947721 4.113904
-1.9316437 1.9000571 7.8417654
-1.7189416 1.8295476 7.4964132
-1.6154084 1.8462828 7.5557327
-0.71802664 1.1055816 4.1244435
-0.49564505 0.94517833 3.3772526
-0.58697796 1.1078167 4.1151285
-0.52333385 1.1108929 4.1194715
-0.45972371 1.1141626 4.124681
-0.39230341 1.1119869 4.1050758
-0.45962298 1.3328105 5.0985956
-0.38028097 1.3362762 5.1023655
-0.31677508 1.3746393 5.2639084
-0.2233842 1.3485136 5.1338029
-0.14314348 1.3511204 5.1336136
-0.051810712 1.3076 4.9263287
0.021137089 1.3333118 5.0301304
0.091668129 1.4155354 5.3860102
0.1780991 1.3381355 5.0285354
0.25493369 1.3016183 4.8545771
0.32737142 1.2748804 4.7248249
0.404313 1.2961881 4.8084216
0.47824347 1.2949536 4.7920508
0.55024189 1.2893102 4.7563257
0.56775385 1.1446568 4.109417
0.63510466 1.1545885 4.1437516
0.69739789 1.1527951 4.1266022
0.75642568 1.1463739 4.0893202
0.82802093 1.1609948 4.143918
0.8925581 1.1635256 4.1457005
0.94815636 1.1546388 4.09794
0.76713157 0.86941922 2.8540995
0.78176945 0.83877432 2.715445
1.1713343 1.1943996 4.2422285
0.91757977 0.89131558 2.9295092
0.93760902 0.87017512 2.8323972
0.97704786 0.86804253 2.8170984
1.0296631 0.87692988 2.848948
1.0685458 0.87455934 2.8326714
1.1149065 0.87803215 2.8413227
1.1720043 0.88885474 2.8811333
1.2228312 0.89469635 2.8996797
1.2851802 0.90761507 2.948055
1.3125916 0.89804095 2.9013779
1.3449895 0.89226627 2.8708909
1.4104285 0.90601647 2.9225161
1.4281862 0.89245117 2.8594806
1.4507569 0.88246697 2.8116887
1.5071222 0.89080143 2.8405237
1.5545725 0.89422548 2.8487988
1.5720229 0.8828488 2.7955563
1.6055241 0.87984693 2.7772586
1.8573407 0.97812188 3.1779764
1.7410084 0.90541995 2.8712456
1.739233 0.88683301 2.7887137
1.790572 0.8919791 2.8040869
1.8641957 0.9062506 2.8568304
1.9142793 0.91032875 2.8676312
1.9119629 0.89343309 2.7927125
1.7434956 0.81270647 2.4579039
1.7659575 0.80825138 2.4347563
1.8164443 0.81448531 2.4551001
1.7927797 0.79346204 2.3649356
1.8277311 0.79429823 2.3635206
1.912408 0.81257898 2.4324965
-2.5371797 0.96785837 3.5407574
-2.4574516 0.96311349 3.51003
-1.8743546 0.81389248 2.8071971
-1.6909543 0.77457935 2.6179535
-1.6569877 0.77815986 2.6282508
-2.214102 0.96398449 3.4803436
-1.5985399 0.78864342 2.6640155
-1.5355624 0.78323221 2.6328003
-1.49168 0.78381002 2.6292033
-1.455287 0.78690052 2.6371224
-1.4382257 0.7968812 2.6764545
-1.3812377 0.79290068 2.6520329
-1.3855015 0.81141305 2.7299042
-1.3500293 0.8157028 2.7429562
-1.7359343 0.98683131 3.5102489
-1.5461287 0.9337759 3.2627552
-1.2665074 0.83929586 2.8300183
-2.3883817 1.3486284 5.1100669
-1.4952121 0.98529744 3.4708815
-1.4406761 0.98712587 3.4710469
-1.390404 0.99100578 3.4803612
-1.3243375 0.9871062 3.4550338
-1.2750833 0.9915123 3.4666851
-1.223738 0.99498272 3.4741426
-2.8430693 1.942655 7.6523442
-0.97915769 0.91865134 3.121973
-0.92543876 0.91730309 3.1089876
-0.88721633 0.9256624 3.138653
-1.1671681 1.1501203 4.1140833
-3.0083036 2.5090671 10.039698
-1.0421133 1.1573322 4.127068
-0.98120916 1.1624434 4.1400671
-1.9294364 2.016088 7.8338141
-1.7596133 1.9783128 7.6528506
-1.6220132 1.965595 7.5809112
-0.72340935 1.1724052 4.1463547
-1.3973093 1.9878669 7.6431246
-0.59243965 1.1750689 4.1395407
-0.53215641 1.1828876 4.163928
-0.4662832 1.1838061 4.1587429
-0.39675897 1.1786404 4.127656
-0.33328468 1.1823838 4.1345925
-0.38812327 1.4249237 5.1546874
-0.32622355 1.470836 5.3378916
-0.13834864 1.1843041 4.1159163
-0.14786494 1.4362062 5.1688905
-0.055925101 1.3890005 4.9592209
0.052918956 1.196371 4.1401033
0.11734549 1.1980848 4.1384358
0.17497259 1.4210181 5.0612745
0.25208989 1.3771253 4.8674641
0.3122676 1.224507 4.2220545
0.37458438 1.2069887 4.1403837
0.43864641 1.2082787 4.1369972
0.50658309 1.2232444 4.1901741
0.56386787 1.2038414 4.1013241
0.63524508 1.2245384 4.177959
0.69426364 1.2148684 4.1295052
0.75345927 1.2082891 4.0939312
0.82999468 1.2320113 4.1824889
0.8919763 1.2300773 4.1659269
0.94941908 1.2226788 4.1271729
0.75667071 0.90212721 2.8152893
0.7883094 0.889871 2.759788
1.1566752 1.2463671 4.1976891
1.192806 1.2192004 4.0793228
1.2442808 1.2102422 4.0348744
1.1405872 1.0614069 3.4276972
1.2047092 1.0729331 3.4670382
1.2125144 1.0373363 3.3173561
1.237717 1.0188365 3.2366693
1.1380693 0.90884805 2.791121
1.1688824 0.90166795 2.7569253
1.3323456 0.98629773 3.0878642
1.2986773 0.93434775 2.8755877
1.3356837 0.93130976 2.8578365
1.3599432 0.92078447 2.8105721
1.4185356 0.93142271 2.8469632
1.4327248 0.91602993 2.7807555
1.3848977 0.86731696 2.5839324
1.4160506 0.86414611 2.5664284
1.5614859 0.92087591 2.783356
1.5925452 0.9164722 2.7607176
1.8639293 1.0308313 3.2009959
1.7125117 0.93636811 2.8273537
1.7188405 0.92059726 2.7606452
1.7690042 0.92566109 2.7749164
1.716539 0.88496923 2.6122158
1.8563169 0.92964005 2.7795727
1.8901296 0.9274298 2.7657146
1.7588145 0.8570329 2.489795
1.7297769 0.83120525 2.3859427
1.7670702 0.83282268 2.3875885
1.7802792 0.82508481 2.3534746
1.8248343 0.82962841 2.3663428
1.8612537 0.83101285 2.3671358
-2.5004971 1.0115234 3.4988275
-2.4362597 1.0106729 3.4872599
-2.3619876 1.0066082 3.4617774
-2.3087003 1.00885 3.4637635
-2.2671955 1.0149006 3.4822247
-2.1964817 1.0115126 3.4598565
-2.1502814 1.0161505 3.4721649
-2.0976229 1.0186843 3.4753788
-2.0409007 1.019799 3.4724958
-1.990911 1.0233335 3.4799845
-1.9342518 1.0244442 3.4770939
-1.8773432 1.0254098 3.4736004
-1.810936 1.0225312 3.4537861
-1.624135 0.9699502 3.2232497
-1.7248495 1.0356476 3.4943042
-1.5465986 0.98364705 3.2671423
-1.6099379 1.0369745 3.4848039
-1.5471585 1.0350294 3.4691219
-1.4897493 1.0354013 3.463232
-1.4331396 1.0360596 3.4585702
-1.3848276 1.0409086 3.4714382
-1.3231428 1.0388099 3.4552925
-1.2755586 1.0442444 3.4705546
-1.2199734 1.0453268 3.4676902
-1.0843247 0.99805129 3.2645516
-0.97760594 0.96471798 3.1199024
-0.92386758 0.96305287 3.1064787
-0.88175106 0.96906626 3.1247153
-0.95564914 1.0592602 3.4885962
-1.0982409 1.2106518 4.1017494
-1.0258574 1.206169 4.0748653
-0.97170198 1.2163197 4.1078186
-1.9522231 2.1537445 7.9169927
-0.83529329 1.2128569 4.0767446
-0.77043664 1.213712 4.0717998
-0.71705657 1.2268472 4.1165795
-0.51829159 1.0713601 3.4801404
-0.58782613 1.2300056 4.112443
-0.52266443 1.2306314 4.1065583
-0.46008956 1.234849 4.115119
-0.39261365 1.2312462 4.0923204
-0.32858551 1.2327068 4.0898623
-0.39195365 1.5061738 5.1725688
-0.20025104 1.2341495 4.0790987
-0.1365605 1.2353922 4.0758262
-0.074828923 1.2431848 4.0985432
-0.012242094 1.2502007 4.1180978
0.052451074 1.2473652 4.0986714
0.11626858 1.2471063 4.0894828
0.17936575 1.2599671 4.1319399
0.24342416 1.2618511 4.1311412
0.30817467 1.2718773 4.1622472
0.36934131 1.2522287 4.0772057
0.43370503 1.2601006 4.0998974
0.49924389 1.2698108 4.1296611
0.5602299 1.2631853 4.0958176
0.62996364 1.2815456 4.1590352
0.68974352 1.2736768 4.1204596
0.75083327 1.27073 4.1010575
0.82430327 1.29057 4.1696119
0.88739896 1.2906492 4.1618433
0.70774305 0.93809932 2.7994998
0.7541793 0.9440605 2.8169777
0.88967669 1.060189 3.2559557
1.1612551 1.3189349 4.237927
1.1780852 1.2683358 4.0369415
0.92734635 0.94983184 2.8174829
1.1295509 1.1051347 3.401855
1.1363369 1.0651202 3.2437491
1.0563152 0.95350438 2.8154001
1.09864 0.95424056 2.8128734
1.161607 0.97145343 2.8724487
1.3256105 1.0642173 3.2159655
1.3451395 1.0441164 3.1344776
1.3023535 0.98198569 2.8958127
1.3349842 0.97556078 2.8663886
1.3562073 0.96227813 2.8114762
1.4201556 0.97689712 2.860733
1.4466015 0.967839 2.821753
1.3577321 0.8915478 2.5333455
1.39779 0.89364064 2.5364404
1.5699052 0.96883047 2.80986
1.6038375 0.96544731 2.7922208
1.8517965 1.0742595 3.18805
1.7228494 0.98550761 2.8558095
1.7359822 0.97189444 2.8006339
1.7861965 0.97696018 2.814111
1.6724687 0.90463519 2.5444713
1.8818743 0.98440242 2.8311033
1.9044447 0.97662699 2.7976599
1.7398857 0.88716364 2.4671841
1.7329222 0.86934882 2.3980722
1.7834762 0.87650943 2.4197366
1.7859383 0.86365741 2.3689194
1.8468132 0.87490487 2.4053214
1.9157989 0.88895488 2.4516976
-2.4285924 1.0426339 3.4116099
-1.9854786 0.91978538 2.9023135
-1.8776813 0.90093899 2.8193953
-1.6950712 0.85602224 2.6307077
-1.6643685 0.86103249 2.6456172
-2.1316171 1.0415422 3.3718672
-1.6002176 0.87059885 2.6734211
-1.5398505 0.86515999 2.6459751
-1.4968469 0.86595428 2.6437559
-1.4604245 0.86928034 2.6517255
-1.4434187 0.88049734 2.6913228
-1.3869599 0.87598896 2.6678007
-1.7409421 1.0453626 3.339098
-1.3569913 0.9021529 2.7613266
-1.7041082 1.0793928 3.4610004
-1.5815679 1.0494612 3.3351603
-1.2726271 0.92811179 2.847553
-1.4892454 1.0589203 3.3591788
-1.430547 1.0575194 3.3469253
-1.3725723 1.0562718 3.3353262
-1.3385129 1.0679333 3.3745232
-1.2852722 1.0693965 3.3735561
-1.2692581 1.0928558 3.458719
-1.2144901 1.0941883 3.4570832
-1.0883999 1.0497551 3.2769828
-0.9751277 1.0098976 3.1154096
-0.92587507 1.0110234 3.1136694
-0.88584793 1.0188349 3.1378577
-0.90990996 1.0763755 3.3543544
-2.9616613 2.77353 9.9011831
-1.0080911 1.2518865 4.0176926
-0.96262538 1.2693464 4.0770435
-1.9430184 2.2629941 7.8835287
-0.6514945 1.0877246 3.3654282
-1.63885 2.2089069 7.6461906
-0.7115851 1.2811568 4.0907173
-0.49483812 1.0932448 3.3670945
-0.57986099 1.2793808 4.0682936
-0.51990885 1.286285 4.086719
-0.45666319 1.2888019 4.0884624
-0.38659555 1.2792463 4.0445681
-0.32313341 1.2799965 4.0397263
-0.39531636 1.5865591 5.1864371
-0.33414745 1.639854 5.3769288
-0.1341809 1.2833178 4.0293479
-0.025228828 1.1099464 3.3726573
-0.064547002 1.5553924 5.0309868
0.051207021 1.3024609 4.0781322
0.11482735 1.2991813 4.0583115
0.16869256 1.587198 5.121027
0.2408534 1.3197548 4.1195402
0.3060506 1.3395481 4.1851821
0.36406261 1.2943869 4.010561
0.42967638 1.3148227 4.0785379
0.49399784 1.3221015 4.0978284
0.55541384 1.318258 4.07618
0.62857628 1.3481681 4.178421
0.6881218 1.3387063 4.1361403
0.7474342 1.3315063 4.102284
0.82083714 1.3525543 4.1715984
0.88061225 1.3470592 4.1440148
0.92976087 1.3264784 4.0617075
0.74663258 0.97865218 2.7925
0.78183824 0.9699831 2.7560871
0.8284654 0.9767642 2.7756567
1.1765088 1.331007 4.0488648
0.9161436 0.98240924 2.7860756
0.95264637 0.97748649 2.7634144
0.99770087 0.98156261 2.7731311
1.0392544 0.982149 2.7703142
1.0855427 0.98699903 2.7827556
1.1306903 0.99059278 2.7906709
1.1709775 0.99009323 2.7839746
1.3362433 1.0864255 3.1217225
1.286787 1.0157653 2.8653579
1.3294656 1.016441 2.8627374
1.3464272 0.99944127 2.7975917
1.4011186 1.0088547 2.825964
1.4385517 1.0066327 2.8132164
1.3892061 0.95056438 2.6110072
1.4122933 0.94181156 2.5757403
1.5586212 1.0058846 2.7960098
1.5908581 1.0014139 2.7755392
1.8663086 1.1318058 3.2264824
1.7037289 1.0194975 2.8291049
1.719171 1.0064683 2.7788815
1.7655616 1.009986 2.7863657
1.7125237 0.96389854 2.6216512
1.8535426 1.0144029 2.7921886
1.8910972 1.0135106 2.7843628
1.7613209 0.93514049 2.5090296
1.7562557 0.91686523 2.4417963
1.7747306 0.90988338 2.4136574
1.7665992 0.89170164 2.3471398
1.8124573 0.89728248 2.3623464
1.8419627 0.89587712 2.3535836
-2.3609376 1.072238 3.3295782
-2.2992883 1.070796 3.317528
-2.2340131 1.0679371 3.3000824
-1.6991717 0.8975035 2.6398795
-2.139873 1.0748221 3.3136544
-2.1018903 1.0817804 3.3338389
-2.0209322 1.0725169 3.2920837
-1.5409387 0.90574884 2.6509855
-1.4997791 0.90723956 2.6515729
-1.4626604 0.91040504 2.6585097
-1.8286114 1.0853031 3.3153086
-1.7497276 1.0752021 3.2708411
-1.7161282 1.0848087 3.3008397
-1.6373317 1.0739148 3.2535923
-1.6442345 1.1031934 3.3573918
-1.5652031 1.0918449 3.3085184
-1.2785981 0.97412014 2.8618655
-1.4582428 1.0933654 3.301764
-1.3612913 1.0704137 3.2100358
-1.3231875 1.0787934 3.2352083
-1.2904329 1.0907598 3.2736065
-1.2549357 1.1018252 3.3085241
-1.257144 1.1372368 3.4333706
-1.194133 1.132807 3.4106536
-1.0955279 1.1036934 3.2970572
-0.9765836 1.0575234 3.1211464
-0.93274724 1.0626051 3.1340663
-0.92968392 1.0995439 3.2636898
-0.91340697 1.129176 3.3661098
nan nan nan
-0.81087446 1.1345114 3.3732798
-0.77119064 1.1482917 3.4172752
-0.70940512 1.1412833 3.3856249
-0.6617825 1.1482698 3.4048173
-0.60713542 1.1479399 3.3974726
-0.55066657 1.1450741 3.3809993
-0.49621135 1.1441239 3.3714936
-0.4419772 1.1430224 3.361481
-0.38758534 1.1411482 3.348731
-0.34275246 1.154726 3.391432
-0.28392288 1.1445837 3.349088
-0.23756626 1.1577184 3.3900576
-0.40109324 1.6727589 5.2207546
-0.13515913 1.1678389 3.414078
-0.078910738 1.1582673 3.3740342
-0.026919141 1.1604735 3.3759131
0.023929372 1.1686612 3.3989682
0.076849833 1.1671501 3.3876626
0.12918374 1.1680707 3.3849797
0.18166985 1.160809 3.3534894
0.23349461 1.1682912 3.3739512
0.28568494 1.172604 3.38322
0.33749852 1.172058 3.3754351
0.38986295 1.1758915 3.3829982
0.44346678 1.1840196 3.4055309
0.49659476 1.1882433 3.4143801
0.54482883 1.1776377 3.3716056
0.68344498 1.3963284 4.125392
0.64803135 1.1800934 3.3685677
0.70468664 1.1915181 3.402354
0.74218762 1.1668403 3.3112814
0.79963821 1.1793847 3.3489175
0.87713712 1.2204849 3.4847598
0.90307683 1.183763 3.3526175
0.97313333 1.2098023 3.4363101
0.83005756 0.97234571 2.6169999
1.072233 1.2061369 3.4121983
1.1238644 1.2071892 3.4100587
0.95640755 0.98291117 2.6398764
0.98432076 0.97213393 2.5987971
1.0303711 0.97940898 2.6191838
1.0613642 0.97276151 2.5922873
1.1054239 0.97793728 2.6055126
1.3702595 1.163178 3.2273202
1.3249856 1.0905935 2.9770517
1.3329366 1.0638051 2.881896
1.3350711 1.0348297 2.7797034
1.3006516 0.98227262 2.5986738
1.3631649 0.9992044 2.6511748
1.3815981 0.9861452 2.6031394
1.4193319 0.9862892 2.5993757
1.5474967 1.0424155 2.7823555
1.566554 1.029874 2.7360709
1.9289031 1.2183923 3.3583765
1.7321194 1.0794232 2.8916767
1.6761789 1.0257115 2.7090199
1.7185419 1.0277555 2.7114174
1.7125745 1.0044041 2.6299298
1.7452704 1.002059 2.6179783
1.7685851 0.99520159 2.5912118
1.7126688 0.95001113 2.438535
1.3856239 0.77738667 1.8681577
1.7759639 0.94757146 2.4227886
1.7831984 0.93534946 2.3789661
1.8199619 0.93691498 2.3803144
2.0090337 1.0053066 2.5995572
-2.2766795 1.093246 3.2259517
-2.207952 1.0883679 3.2022908
-1.8912432 0.9917587 2.845309
-1.7004688 0.93803382 2.6452231
-1.6730504 0.94477379 2.6648366
-2.0447295 1.1097699 3.2564321
-1.9598169 1.0976657 3.2068722
-1.5439087 0.94709957 2.6588147
-1.85656 1.0996965 3.2026291
-1.4648979 0.95156288 2.6652997
-1.4481709 0.96411514 2.7054965
-1.7062322 1.1045209 3.2027004
-1.6650702 1.1103686 3.2178605
-1.6054362 1.1073976 3.20155
-1.5606835 1.1116548 3.2110066
-1.5196233 1.1179868 3.2277977
-1.2959697 1.0265025 2.8979015
-1.4035504 1.1127031 3.1977203
-1.3469917 1.1104587 3.1841695
-1.3028026 1.1152751 3.1955564
-1.2597404 1.1210016 3.2101078
-1.2135208 1.1250062 3.2185631
-1.1850181 1.1409065 3.2686994
-1.1572224 1.15841 3.3242745
-1.0772935 1.1398541 3.2536671
-0.98198438 1.1080666 3.1371596
-0.93840218 1.1136485 3.1511724
-0.91344297 1.1347852 3.2192023
-0.86860037 1.1407802 3.2344625
-0.81812727 1.1421382 3.2336099
-0.77121955 1.1468229 3.2442667
-0.72478646 1.152303 3.2576337
-0.67260534 1.1521318 3.2514844
-0.62350672 1.1551772 3.256424
-0.57389301 1.157768 3.2597868
-0.52143341 1.1568164 3.2509978
-0.47195351 1.159557 3.2548769
-0.41938132 1.1578346 3.2434974
-0.36804831 1.1574998 3.236891
-0.32022566 1.1629992 3.2501745
-0.26880053 1.1621901 3.2419727
-0.21891654 1.1641535 3.2432086
-0.16957468 1.1675107 3.2491648
-0.12115827 1.174006 3.2657158
-0.069808513 1.1722262 3.2542753
-0.020010114 1.1752927 3.2592096
0.030126542 1.1772665 3.2604537
0.080686048 1.17626 3.2516842
0.13067381 1.1785423 3.2539754
0.18078578 1.178473 3.2483881
0.23073356 1.1799685 3.2480521
0.28124958 1.1898525 3.2757137
0.3308031 1.1851614 3.2547271
0.38143122 1.1904644 3.2670538
0.43173838 1.1927614 3.2693605
0.48121208 1.1918677 3.2610836
0.53067172 1.1917721 3.2554784
0.68269742 1.4636879 4.1487269
0.63098633 1.1961905 3.2595365
0.68101364 1.1980023 3.2602503
0.72884905 1.1956654 3.2473214
0.78153265 1.2024294 3.2643154
0.8275817 1.1978406 3.2440453
0.83226317 1.1331013 3.0270073
1.5475436 2.0555305 6.0358782
0.97743291 1.2040452 3.2487845
0.89535749 1.0459169 2.7286522
0.92919022 1.0383775 2.6998191
0.97519547 1.0449975 2.7170451
1.1798666 1.2146571 3.2626441
1.2275058 1.2141933 3.2560015
1.2679129 1.207152 3.228132
1.3270056 1.2176409 3.2568994
1.3633751 1.2078587 3.2202938
1.3121445 1.1265547 2.953826
1.3338475 1.1095443 2.8946097
1.3408139 1.0825807 2.8036785
1.3076575 1.0279049 2.6243439
1.3640654 1.0410738 2.6623626
1.3968303 1.0371172 2.6456275
1.7171104 1.2263417 3.2443116
1.551455 1.0881438 2.7997749
1.5778068 1.0793695 2.7676108
1.8705834 1.2346839 3.2558124
1.7295736 1.1226503 2.8961561
1.6921644 1.076859 2.7469923
1.7480413 1.0863183 2.77266
1.7414426 1.0608988 2.6883423
1.7916346 1.0673716 2.7046292
1.8731301 1.0900655 2.7718248
1.5582778 0.90821552 2.197227
nan nan nan
1.2717336 0.73716289 1.6557181
1.2037674 0.69338357 1.5165495
1.217049 0.68969941 1.5028075
1.1998086 0.67212796 1.4458776
-1.9519799 1.0214117 2.8125169
-1.9761026 1.0487415 2.9020858
-1.9103148 1.0422662 2.8747857
-1.7148917 0.98378092 2.6685596
-1.785913 1.0310768 2.8265254
-1.9261971 1.1095395 3.0908601
-1.68382 1.0280004 2.8063867
-1.5599689 0.9942615 2.6862946
-1.6447697 1.0526696 2.8810811
-1.5840418 1.0468104 2.8562562
-1.5184664 1.038242 2.8223047
-1.5221479 1.0629184 2.901346
-1.4212316 1.0363917 2.8065667
-1.3724979 1.0351866 2.7977936
-1.3479434 1.0466863 2.831969
-1.4918221 1.1512219 3.1797888
-1.287375 1.0650892 2.8845093
-1.3714608 1.1418914 3.1378627
-1.2998291 1.1296588 3.0916171
-1.2132969 1.1071453 3.0110877
-1.1771184 1.1154989 3.0340576
-1.1810647 1.1512762 3.1485157
-1.1644895 1.1753522 3.223593
-1.1308323 1.1888175 3.263114
-1.0404137 1.1604425 3.1635053
-0.98024297 1.1532744 3.1345646
-0.93334401 1.1562091 3.1391745
-0.8987726 1.1698371 3.1791222
-0.83968854 1.1625493 3.1499097
-0.79193437 1.1650577 3.1530743
-0.74958539 1.1730243 3.1741867
-0.7090416 1.1835772 3.2037258
-0.6549533 1.1800973 3.1871591
-0.61445493 1.1920136 3.2210498
-0.55324024 1.1791888 3.1739705
-0.50415552 1.1806514 3.1736662
-0.46033877 1.1896979 3.1980722
-0.40617818 1.1837275 3.1735582
-0.35618633 1.1834965 3.1677628
-0.30689311 1.1841859 3.1649728
-0.25942451 1.1884135 3.1736467
-0.20757341 1.1831139 3.1515048
-0.16179127 1.1917921 3.1745389
-0.11420265 1.197143 3.1867812
-0.06533286 1.1992295 3.188488
-0.015959829 1.1992786 3.1836481
0.03227143 1.2046688 3.1959512
0.082289577 1.1992202 3.1735201
0.13105021 1.2003599 3.172219
0.17962761 1.2052587 3.1829209
0.22838348 1.2024788 3.1691248
0.27743089 1.2108523 3.1908567
0.32607353 1.2100905 3.1835053
0.37656298 1.2220912 3.216655
0.42754045 1.2317051 3.2421451
0.47358751 1.2195404 3.1987047
0.52087176 1.2157316 3.1817772
0.68312502 1.5348246 4.1826282
0.61770785 1.2176725 3.1781662
0.58820939 1.0470839 2.6373138
0.71495444 1.2210382 3.1790552
0.77043086 1.2352333 3.2186956
0.79940701 1.2029853 3.1129568
0.82873619 1.1762761 3.0248399
nan nan nan
0.83058017 1.0566131 2.6431677
0.87624556 1.0648742 2.6648829
0.90741444 1.0549079 2.6299565
0.95658535 1.0666933 2.6625528
0.98835701 1.058584 2.6334851
1.0322671 1.0639176 2.6460457
1.0697851 1.0625991 2.6380453
1.1091673 1.0632789 2.6362276
1.2946023 1.1961235 3.0409718
1.3072141 1.1684562 2.9514921
1.3310454 1.1523871 2.8978522
1.331697 1.1189295 2.7911234
1.3000393 1.0628012 2.6153896
1.3399895 1.0643529 2.6162934
1.6086285 1.2321436 3.1240263
1.6668428 1.2413375 3.1474462
1.6846511 1.2224872 3.0855486
1.5732158 1.1191672 2.7674413
1.848823 1.2710959 3.2239008
1.750254 1.1803749 2.9446561
1.6857579 1.1153593 2.7439132
1.8020185 1.1611488 2.8781254
1.7164207 1.0878372 2.6530702
1.9541215 1.2007987 2.9891376
1.799721 1.0922503 2.65871
1.5620037 0.94392896 2.2099161
1.3668371 0.82476741 1.8497783
1.2593459 0.75604451 1.6415668
nan nan nan
1.2250929 0.71652669 1.5190499
nan nan nan
-1.9380679 1.0584692 2.7985055
-1.9490051 1.0817392 2.8704331
-1.8867376 1.0760161 2.8470211
-1.7302985 1.0304782 2.6932948
-1.7219787 1.0462611 2.7405682
-1.7660848 1.0857801 2.8651729
-1.6637133 1.0612036 2.7804844
-1.5743474 1.0413083 2.711303
-1.5384772 1.0456481 2.7210765
-1.5682992 1.0820839 2.834919
-1.491317 1.0670646 2.7817788
-1.4927185 1.0913603 2.8559146
-1.4123206 1.0737666 2.7946045
-1.3659165 1.0735227 2.7894053
-1.3378974 1.0834577 2.8169744
-1.2881227 1.0813607 2.8058069
-1.2733328 1.0998437 2.860683
-1.2054566 1.0868206 2.8144977
-1.1995717 1.1121662 2.8911309
-1.1648278 1.1202017 2.9122691
-1.1733975 1.1581422 3.0286536
-1.1922393 1.2059891 3.1761982
-1.1792232 1.2340338 3.2603683
-1.147004 1.249543 3.3045123
-1.0480683 1.2133708 3.1848347
-0.97776461 1.1975965 3.1300364
-0.93409193 1.2032115 3.1429446
-0.90795636 1.2249793 3.2067361
-0.86034322 1.2283924 3.212559
nan nan nan
-0.76686788 1.23756 3.2315047
-0.72582918 1.2488844 3.2620554
-0.67221409 1.2466618 3.2501361
-0.62923825 1.2571071 3.2778234
-0.56786674 1.2444254 3.2333028
-0.52008986 1.2488974 3.2423346
-0.47755659 1.2617227 3.2773137
-0.42048973 1.2525047 3.2437558
-0.36600477 1.2459579 3.2185824
-0.31994116 1.2542599 3.2394454
-0.26743734 1.2500353 3.2215345
-0.21410775 1.2424103 3.1931884
-0.17093104 1.2599992 3.2426145
-0.1228286 1.2669048 3.2590284
-0.07170558 1.26445 3.2466412
-0.02555126 1.2824976 3.297179
0.026146621 1.2776892 3.2775681
0.077922672 1.267302 3.2409573
0.12752894 1.2696109 3.2432256
0.17731637 1.2678376 3.2330425
0.2267653 1.2659074 3.2224143
0.27732989 1.2878358 3.2843485
0.32619485 1.2766352 3.2455404
0.37623093 1.2808447 3.2535555
0.42968535 1.3009348 3.3096132
0.47621173 1.2861847 3.2602179
0.52683651 1.2906071 3.2688255
0.67593706 1.5843827 4.1493034
0.62119102 1.279687 3.2265029
0.58215916 1.0764959 2.6113608
0.71979928 1.2832583 3.22791
0.7762689 1.2987764 3.2697518
0.78125691 1.2213081 3.0333154
0.82744986 1.2228326 3.0335224
0.73756623 1.0172397 2.4159489
0.8279196 1.0949458 2.6439526
0.93051696 1.1799306 2.8929501
0.93119448 1.1266311 2.7305427
0.96704179 1.1212746 2.7107844
0.9911201 1.1032211 2.6534834
1.2096344 1.2976422 3.2246754
1.2390403 1.2790093 3.1650987
1.3065245 1.2998147 3.2219865
1.3358332 1.2828374 3.1674612
1.3440293 1.2481127 3.0609076
1.3329234 1.1992402 2.913116
1.3236187 1.1555736 2.7810073
1.291531 1.0965163 2.6042089
1.3396533 1.1046996 2.6245124
1.6319388 1.298419 3.1864817
1.6790123 1.2991486 3.1841831
1.7205278 1.295965 3.1704984
1.7845309 1.3086851 3.203095
1.8443531 1.3179601 3.2256
1.7584921 1.2312589 2.9697669
1.6900046 1.1603837 2.7604694
1.7431591 1.1689156 2.7813511
1.7137126 1.1270269 2.6565921
1.9745862 1.2589204 3.0332654
1.8821052 1.1806533 2.8037574
1.5556074 0.97418642 2.2062471
nan nan nan
nan nan nan
nan nan nan
nan nan nan
2.4326015 1.339265 3.2339938
-1.9303479 1.0974629 2.7924306
-1.9591568 1.1292459 2.887754
-1.8773253 1.1148255 2.8382225
-1.7242669 1.0683198 2.688612
-1.7066566 1.0805473 2.7226636
-1.7996509 1.1443163 2.9171329
-1.6572378 1.0998818 2.7745347
-1.5669631 1.0783921 2.7036159
-1.5276988 1.0810719 2.7078443
-1.4848678 1.0819938 2.7066202
-1.5117271 1.1193963 2.8181539
-1.5581232 1.1692989 2.9679272
-1.5691538 1.2023571 3.065345
-1.5329541 1.2103311 3.0852933
-1.345044 1.12968 2.8329177
-1.44901 1.2204508 3.1071374
-1.3010617 1.1597426 2.9165733
-1.3372184 1.2135096 3.0766816
-1.2698026 1.2018569 3.0365393
-1.2118583 1.195803 3.0135903
-1.1720093 1.2020909 3.0282879
-1.1367135 1.2120776 3.0541885
-1.1378514 1.2506127 3.1666758
-1.0660981 1.2339876 3.1116347
-1.036765 1.2510217 3.1586335
-0.97308195 1.2396803 3.1197398
-0.92252338 1.2390218 3.1132007
-0.87001657 1.2363071 3.1004872
-0.80633771 1.2221303 3.0533249
-0.76127541 1.2256751 3.0595458
-0.7209031 1.2345338 3.0816932
-0.6702469 1.2323357 3.0706546
-0.63379759 1.2470006 3.1100936
-0.59299034 1.2576215 3.1373405
-0.53762192 1.2493312 3.1081049
-0.48352236 1.2415143 3.0803649
-0.44552481 1.2577899 3.1243594
-0.39966702 1.2629491 3.1352167
-0.34580958 1.2538171 3.1036644
-0.29167008 1.2420446 3.0643852
-0.24665922 1.2479982 3.0776365
-0.20095626 1.2532029 3.0886405
-0.15347657 1.2542756 3.0874305
-0.10363236 1.2474216 3.0628881
-0.058817089 1.256896 3.0864251
-0.013635442 1.2679801 3.1146231
0.03389591 1.2701949 3.1167397
0.083244443 1.2580205 3.0767272
0.13034032 1.258606 3.074132
0.17698148 1.2699759 3.1030297
0.22431388 1.2666661 3.0890536
0.27123398 1.2640288 3.0770752
0.31897944 1.2733305 3.0998411
0.36715594 1.2809501 3.1176617
0.41635194 1.2911676 3.1429658
0.46203846 1.283239 3.1156693
0.51254642 1.2956529 3.147259
0.55485719 1.279768 3.0970664
0.60364377 1.2857542 3.1100681
0.64735013 1.278451 3.0847764
0.69959056 1.2916788 3.1185813
0.74935657 1.2979196 3.1322355
0.78251815 1.2727218 3.0557194
0.82625431 1.2696182 3.0426726
0.73361135 1.0495578 2.4093564
0.82502764 1.132778 2.6437073
