# .PCD v0.7 - Point Cloud Data file format
VERSION 0.7
FIELDS x y z
SIZE 4 4 4
TYPE F F F
COUNT 1 1 1
WIDTH 1531
HEIGHT 1
VIEWPOINT 0 0 0 1 0 0 0
POINTS 1531
DATA ascii
1.5669148 -0.59288669 2.5885963
1.6272093 -0.59949821 2.6174626
1.9835761 -0.712053 3.108887
1.8020238 -0.63070828 2.7537289
2.0288661 -0.69278347 3.0247548
2.1256013 -0.70853382 3.0935218
2.1655083 -0.70504922 3.0783079
2.1794262 -0.69345373 3.0276811
1.9318054 -0.60100615 2.6240466
2.2548587 -0.68626136 2.9962785
2.3708377 -0.70620692 3.0833626
-5.981988 -1.6201217 7.6177192
-6.199399 -1.7147274 8.0625496
-6.2060604 -1.7538868 8.2466745
-9.8884125 -2.8566525 13.431815
-5.7250323 -1.6914867 7.9532733
-5.4495049 -1.6475248 7.7465668
-5.3293681 -1.6495663 7.756166
-5.1746922 -1.640756 7.7147403
-5.1673679 -1.6793945 7.8964162
-4.9101639 -1.6367214 7.6957698
-4.8238015 -1.6502479 7.7593708
-4.5980582 -1.6155341 7.596148
-4.7525573 -1.7162012 8.069479
-4.3939519 -1.6320393 7.6737547
-4.1596174 -1.5904421 7.4781671
-4.3193865 -1.7015766 8.0007153
-4.0790043 -1.6570954 7.7915673
-3.8555467 -1.616842 7.6022987
-3.9536679 -1.7132561 8.0556316
-3.7431934 -1.6779832 7.8897805
-3.6156368 -1.6786885 7.8930969
-3.4175527 -1.6454883 7.7369914
-3.2560947 -1.6280473 7.654985
-3.3982303 -1.7670797 8.3087072
-2.8576744 -1.547907 7.2781696
-2.8710279 -1.6227549 7.6301007
-2.739522 -1.6188083 7.6115437
-3.0734637 -1.9026203 8.9460115
-2.4864428 -1.6161878 7.5992222
-2.6934934 -1.8429164 8.665287
-2.3979187 -1.7318301 8.1429653
-2.1979797 -1.6808081 7.9030628
-2.0361226 -1.6543497 7.778657
-1.8565674 -1.609025 7.5655432
-1.7053133 -1.5835052 7.4455504
-1.6103226 -1.6103226 7.5716443
-1.4669319 -1.5891763 7.4722157
-1.2585474 -1.4873743 6.9935484
-1.0790306 -1.4027398 6.5956016
-0.86184537 -1.2448877 5.8533907
-1.0525054 -1.7103212 8.041832
-0.78711569 -1.4617863 6.8732347
-0.71887678 -1.5575663 7.3235874
-0.59953165 -1.5587822 7.3293042
-0.51717174 -1.6808081 7.9030628
-0.34349608 -1.4884831 6.9987617
-0.2215651 -1.4401731 6.7716112
-0.073527999 -0.95586401 4.4944177
0 -0.96627152 4.5433531
0.073970623 -0.96161807 4.5214729
0.14659986 -0.95289916 4.4804769
0.21679604 -0.93944955 4.4172378
0.29153025 -0.94747335 4.4549651
0.36175227 -0.94055587 4.4224396
0.4404301 -0.95426524 4.4869003
0.50278234 -0.93373865 4.3903852
0.56809986 -0.92316222 4.3406558
0.63881701 -0.92273575 4.3386502
0.70653176 -0.9184913 4.3186932
0.75160146 -0.88825625 4.1765299
0.83877134 -0.90866894 4.2725091
0.9309091 -0.9309091 4.3770809
1.0249761 -0.95176357 4.4751377
1.1236284 -0.97381127 4.5788045
1.1789877 -0.95792758 4.5041203
1.0302624 -0.7878477 3.7044146
1.0439116 -0.75393617 3.5449646
0.98794854 -0.67596483 3.1783476
1.0748776 -0.69867045 3.2851081
1.0626256 -0.65781587 3.0930123
1.1178299 -0.66053593 3.1058018
1.156778 -0.65383106 3.074276
1.2271638 -0.66471374 3.1254456
1.2604629 -0.65544069 3.0818443
1.2938927 -0.64694637 3.0419047
1.3404008 -0.64537817 3.0345309
1.3931973 -0.64684165 3.0414121
1.2911305 -0.57878262 2.7214026
1.4795313 -0.64113021 3.0145574
1.3771801 -0.57752711 2.7154994
1.5539677 -0.63129944 2.9683335
1.8652438 -0.73479295 3.4549544
1.6461465 -0.62940896 2.9594448
2.5454545 -0.94545454 4.4454727
1.5976886 -0.5769431 2.7127533
1.5574677 -0.54721844 2.5729895
1.6213334 -0.5546667 2.6080108
1.7943388 -0.59811294 2.8122926
1.8038754 -0.58625954 2.7565587
2.0097654 -0.63724273 2.9962785
2.1249011 -0.65770751 3.0925028
2.1630261 -0.65393806 3.0747793
2.1829457 -0.64496118 3.0325706
1.9372197 -0.5596413 2.6314011
2.2491167 -0.63561994 2.9886484
2.3770826 -0.65749097 3.0914845
-8.5580959 -2.139524 10.898246
-7.3552728 -1.877942 9.5658064
-6.9270592 -1.8070589 9.2047443
-8.9129591 -2.3767893 12.10682
-6.8787789 -1.8760306 9.5560703
-8.3341331 -2.3258045 11.847116
-6.1148815 -1.7471091 8.8993731
-7.4660349 -2.1851809 11.130811
-7.7380352 -2.3214107 11.824734
-7.8203654 -2.4062662 12.256969
-6.008029 -1.8972722 9.6642704
-7.3521347 -2.3844762 12.145975
-5.5939307 -1.8646436 9.4980669
-5.5195074 -1.8924025 9.6394653
-5.63062 -1.9872775 10.122737
-5.4976144 -1.9991324 10.183123
-5.7724018 -2.1646507 11.026235
-5.9520001 -2.3039999 11.736049
-4.5691624 -1.8276649 9.3097067
-4.0256667 -1.6657931 8.4851685
-3.9803793 -1.7058769 8.6893463
-4.5800114 -2.0355606 10.368679
-3.5994592 -1.6612889 8.462225
-4.4964871 -2.1583138 10.993957
-4.1938562 -2.0969281 10.681273
-4.4215274 -2.3068838 11.750737
-4.2029848 -2.2925375 11.67766
-3.4984818 -1.9991324 10.183123
-3.0658684 -1.8395212 9.3700991
-2.8952382 -1.8285716 9.3143244
-3.0282583 -2.0188389 10.283504
-2.2598009 -1.5951536 8.1253471
-2.1342597 -1.6006949 8.153573
-2.3296258 -1.8637009 9.4932652
-2.2623882 -1.93919 9.8777895
-1.6612313 -1.5334443 7.8110142
-1.5034257 -1.5034257 7.6581068
-1.1343404 -1.2374624 6.3033495
-1.026395 -1.2316738 6.2738647
-0.88050956 -1.1740128 5.9801521
-1.079789 -1.6196836 8.2502975
-0.71656114 -1.2283905 6.2571402
-0.71887678 -1.4377536 7.3235874
-0.59836388 -1.4360732 7.3150282
-0.57153493 -1.7146047 8.7338037
-0.30822745 -1.2329098 6.28016
-0.21588194 -1.2952917 6.597919
-0.073545612 -0.88254732 4.4954939
0 -1.2130307 6.1789002
0.10216162 -1.2259395 6.2446551
0.20058766 -1.2035259 6.1304855
0.21684706 -0.86738825 4.4182773
0.29425287 -0.88275856 4.4965701
0.36192268 -0.86861449 4.4245234
0.43875268 -0.87750536 4.4698114
0.50172657 -0.86010265 4.381166
0.56796861 -0.85195291 4.339653
0.63970387 -0.85293847 4.3446732
0.70669425 -0.84803307 4.3196864
0.74910223 -0.81720245 4.162642
0.83838987 -0.83838987 4.270566
0.92766553 -0.85630661 4.3618298
1.0252205 -0.87876046 4.4762044
1.1255497 -0.90043974 4.5866337
1.1924309 -0.89432311 4.5554771
1.0320948 -0.72853756 3.7110035
1.0672843 -0.71152288 3.6243346
0.97621673 -0.61655796 3.140605
1.150993 -0.69059581 3.5177367
1.0527415 -0.60156655 3.0642424
1.1044942 -0.60245138 3.0687494
1.1466407 -0.59824735 3.0473349
1.2118344 -0.60591722 3.0864034
1.2534683 -0.60166472 3.0647426
1.2888818 -0.59486854 3.0301239
1.3324338 -0.59219277 3.0164945
1.3880265 -0.59486854 3.0301239
1.2928166 -0.53495866 2.7249568
1.4684513 -0.58738053 2.9919817
1.3777778 -0.53333336 2.7166779
1.5444462 -0.57916731 2.9501457
1.5889655 -0.57780564 2.9432096
1.6320001 -0.57599998 2.9340122
2.5796547 -0.88445294 4.5052009
1.5972271 -0.53240901 2.7119696
1.5643271 -0.50734931 2.5843213
1.6240401 -0.51285475 2.6123648
1.793533 -0.55185634 2.8110297
1.8185586 -0.54556757 2.7789962
2.0040095 -0.58653939 2.9876974
2.1189687 -0.60541964 3.083869
2.1535051 -0.6009782 3.0612452
2.1561334 -0.58803636 2.9953227
1.9320756 -0.51522017 2.6244135
2.2398479 -0.58430815 2.9763319
2.3480892 -0.5995121 3.0537775
-9.1134729 -2.0885043 11.605487
-8.9346533 -2.0910892 11.61985
-6.9440784 -1.6605406 9.2273598
-9.0530453 -2.2129667 12.297104
-8.933774 -2.2334435 12.410891
-8.549902 -2.1871843 12.153836
-8.5844316 -2.2483034 12.493464
-7.8572679 -2.1080475 11.714085
-7.8618045 -2.1619961 12.013869
-7.7949252 -2.1985686 12.217096
-8.3086119 -2.4051244 13.364895
-7.4096484 -2.2028682 12.24099
-7.2853751 -2.2260871 12.370011
-5.5337105 -1.7391663 9.6642704
-7.5686955 -2.4486957 13.607013
-6.0595341 -2.0198445 11.223955
-6.2975016 -2.1647663 12.029262
-6.7540426 -2.3965957 13.317502
-4.5942173 -1.6845464 9.3607569
-4.0978842 -1.5543698 8.6373863
-4.0044694 -1.5731844 8.7419357
-5.0544791 -2.0592322 11.442826
-5.1232843 -2.1675434 12.044694
-4.7319779 -2.0820701 11.569734
-4.7050419 -2.1564772 11.983202
-4.4493704 -2.1279595 11.824734
-4.2666669 -2.1333334 11.854594
-3.5681415 -1.8690265 10.385883
-2.9767444 -1.6372094 9.0977125
-2.9067726 -1.6828685 9.3514328
-3.3290792 -2.0344372 11.305044
-2.0897958 -1.3522209 7.5140767
-1.9551313 -1.3441528 7.4692435
-1.8365883 -1.3468314 7.484128
-2.2743523 -1.786991 9.9300251
-1.6116223 -1.3636804 7.5777555
-1.4669319 -1.3446877 7.4722157
-1.1919576 -1.1919576 6.6235194
-1.0722513 -1.1794765 6.5541635
-0.89100873 -1.0890107 6.0514593
-1.0638962 -1.4628572 8.1288652
-0.76174283 -1.1970245 6.6516747
-0.71441859 -1.3097675 7.2781696
-0.5928213 -1.304207 7.2472706
-0.44978037 -1.236896 6.8732347
-0.31801242 -1.1660455 6.4795299
-0.21810436 -1.199574 6.6658421
-0.1064449 -1.170894 6.5064716
0 -1.12154 6.2322197
0.10305267 -1.1335794 6.2991204
0.20257172 -1.1141443 6.1911235
0.21689808 -0.79529297 4.4193168
0.29347983 -0.80706948 4.4847569
0.36346427 -0.7996214 4.4433689
0.4403249 -0.8072623 4.4858284
0.50196081 -0.78879559 4.3832116
0.56849414 -0.78167945 4.3436685
0.63926011 -0.78131795 4.3416595
0.70783412 -0.77861756 4.326654
0.78059602 -0.78059602 4.3376479
0.84299105 -0.77274185 4.2940035
0.93177789 -0.78842741 4.381166
1.0261991 -0.80629921 4.4804769
1.1189897 -0.82059252 4.5599022
1.1878202 -0.81662643 4.5378633
1.0366019 -0.67074239 3.7272089
1.0644082 -0.65047163 3.6145675
0.98262632 -0.56888896 3.1612253
1.0472132 -0.57596731 3.2005587
1.0610527 -0.55578947 3.0884337
1.11857 -0.55928499 3.1078579
1.156778 -0.55324167 3.074276
1.2230922 -0.56058395 3.1150758
1.2590164 -0.55396724 3.0783079
1.2955718 -0.54812652 3.0458519
nan nan nan
1.3929716 -0.54723889 3.0409195
1.2933798 -0.49059233 2.7261436
1.4847753 -0.54441762 3.0252421
1.55354 -0.55125618 3.0632427
1.576901 -0.54205966 3.0121396
1.6361524 -0.54538411 3.0306129
1.6513518 -0.53426087 2.9688027
2.5606098 -0.80476308 4.4719405
1.6006948 -0.48910117 2.7178576
1.5671308 -0.46590376 2.5889533
1.626756 -0.47090304 2.6167333
1.9852197 -0.55993372 3.1114628
1.8329356 -0.50405729 2.8009663
2.0174916 -0.54127824 3.0077972
2.1291089 -0.55762374 3.0986266
2.1605494 -0.55269873 3.071259
2.1776705 -0.54441762 3.0252421
1.9336971 -0.47268152 2.626616
1.8990996 -0.45413253 2.5235422
2.371227 -0.554968 3.083869
-8.5136271 -1.7736721 10.841616
-6.5808573 -1.4001824 8.55865
-6.5574017 -1.425522 8.7135391
-9.2406416 -2.0534761 12.551924
-9.9388227 -2.2588234 13.807116
-8.6168308 -2.0039139 12.248975
-5.7090268 -1.3592921 8.3087072
-7.3872147 -1.8017596 11.013301
-7.9022508 -1.9755627 12.075677
-8.4253168 -2.1603374 13.205118
-8.8570557 -2.3308041 14.2471
-7.9596639 -2.1512604 13.149634
-8.2531347 -2.2925375 14.013192
-8.3348837 -2.3813953 14.556339
-8.1599998 -2.4000001 14.670061
-5.2662859 -1.5958441 9.7546377
-7.3912787 -2.3097744 14.118555
-7.14955 -2.3063064 14.097356
-4.3369417 -1.4456471 8.8365545
-4.0274863 -1.3887885 8.4890041
-6.8757796 -2.4556353 15.010134
-4.7127275 -1.7454547 10.669135
-5.9472823 -2.2874162 13.98189
-4.4393067 -1.7757225 10.854149
-5.4331613 -2.2638173 13.83764
-4.3858476 -1.9068902 11.655914
-4.2720609 -1.9418459 11.869581
-3.4909093 -1.6623377 10.161081
-3.0476191 -1.5238096 9.3143244
-2.9169414 -1.5352324 9.3841467
-3.1651976 -1.7584431 10.748528
-2.3107965 -1.3592921 8.3087072
-2.2090786 -1.3806742 8.4394054
-2.3260982 -1.550732 9.4788885
-2.2540879 -1.6100628 9.8415499
-1.6584717 -1.2757475 7.798039
-1.530897 -1.2757475 7.798039
-1.1145118 -1.0131925 6.1931653
-1.0141962 -1.0141962 6.1992993
-0.87910974 -0.97678864 5.970645
-1.0708497 -1.3385621 8.1819944
-0.70853382 -1.0121912 6.1870437
-0.71580589 -1.1930097 7.2923021
-0.4877739 -0.97554779 5.9630604
-0.57153493 -1.4288372 8.7338037
-0.30029327 -1.0009775 6.1185002
-0.21193516 -1.0596758 6.4772949
-0.10138614 -1.0138614 6.1972532
0 -0.99321043 6.0710239
0.10131926 -1.0131925 6.1931653
0.19711262 -0.98556304 6.0242791
0.29220039 -0.97400129 5.9536076
0.37532073 -0.9383018 5.7353935
0.46209386 -0.92418772 5.6491208
0.44254506 -0.73757505 4.5084462
0.50149256 -0.71641797 4.3791227
0.56678969 -0.70848703 4.3306451
0.63719755 -0.70799726 4.327651
0.70361888 -0.70361888 4.3008881
0.73749459 -0.67044961 4.0981402
0.82322466 -0.68602055 4.1933179
0.92273575 -0.70979667 4.3386502
1.024244 -0.73160279 4.4719405
1.1247253 -0.74981689 4.5832748
1.197369 -0.74835563 4.5743427
1.0399044 -0.61170846 3.7390835
1.0222962 -0.56794232 3.4715619
1.0040944 -0.52847064 3.2302904
1.0918785 -0.54593927 3.3370674
1.0939801 -0.52094287 3.1842763
1.1507577 -0.52307171 3.197289
1.1868974 -0.51604235 3.1543219
1.2447746 -0.51865608 3.1702983
1.2740543 -0.50962174 3.1150758
1.8531786 -0.71276098 4.3567696
1.4722044 -0.54526085 3.332921
1.4131099 -0.50468212 3.0848823
1.462137 -0.50418514 3.0818443
1.5225508 -0.50751692 3.10221
1.5901153 -0.51294041 3.1353612
1.6384 -0.51200002 3.1296129
1.8529702 -0.56150615 3.4322205
1.8850027 -0.55441254 3.3888607
1.9279182 -0.55083376 3.3669853
1.6067414 -0.44631705 2.7281241
1.5641118 -0.42273289 2.5839655
1.62246 -0.42696318 2.6098232
2.0108762 -0.51560926 3.1516747
2.0672948 -0.51682371 3.1590979
2.0967538 -0.51140338 3.1259661
2.126302 -0.50626236 3.0945415
2.1633804 -0.50311172 3.0752831
2.2046649 -0.50106019 3.0627429
1.9434838 -0.4318853 2.6399097
2.2635272 -0.49207115 3.0077972
2.4193029 -0.51474535 3.1463938
-9.4523087 -1.7723078 12.036973
-9.2081633 -1.7632655 11.97556
-9.2300463 -1.8058785 12.264976
-9.2654161 -1.8530831 12.585575
-9.5592651 -1.9553043 13.279829
-8.782979 -1.838298 12.485158
-9.4384785 -2.022531 13.736414
-8.0583496 -1.768906 12.013869
-8.1323633 -1.8297818 12.427319
-8.0896692 -1.8668468 12.679053
-8.5458269 -2.0240116 13.746469
-7.6541419 -1.8618182 12.644901
-7.7445383 -1.9361346 13.149634
-8.0298738 -2.0648246 14.023658
-7.8532338 -2.0787971 14.118555
-7.2618909 -1.9805157 13.451058
-7.128644 -2.0049312 13.61688
-6.8958721 -2.0020275 13.597159
-6.908546 -2.0725636 14.076221
-6.7388806 -2.0913768 14.203992
-6.5912642 -2.1186206 14.389025
-5.3789883 -1.7929962 12.177483
-5.4371681 -1.8820966 12.782626
-5.0000005 -1.8000001 12.225051
-5.3894739 -2.0210526 13.726373
-4.5234318 -1.7700385 12.021561
-4.3971372 -1.7988288 12.217096
-3.886265 -1.6655422 11.311854
-3.5412104 -1.5935447 10.822869
-3.550365 -1.6817517 11.421945
-3.526531 -1.7632655 11.97556
-1.9414127 -1.0278068 6.9805493
-1.7808696 -1.0017391 6.8035064
-2.5029876 -1.5017926 10.199717
-2.3813956 -1.530897 10.397386
-1.5904421 -1.1010753 7.4781671
-1.4599605 -1.0949703 7.4367042
-1.1393123 -0.93216455 6.330977
-1.0371372 -0.9334234 6.3395267
-0.89620751 -0.89620751 6.0867677
-1.0391543 -1.1690485 7.9398212
-0.72919637 -0.93753821 6.3674731
-0.7029748 -1.0544622 7.1615858
-0.58492011 -1.0528561 7.1506772
-0.43589929 -0.98077339 6.6611133
-0.31357607 -0.94072813 6.3891382
-0.21671958 -0.97523808 6.6235194
-0.10571232 -0.95141089 6.4616923
0 -0.92313856 6.2696753
0.10294907 -0.92654157 6.2927876
0.20144263 -0.90649182 6.1566157
0.2989296 -0.89678884 6.0907159
0.39108849 -0.87994909 5.9763455
0.35221279 -0.63398302 4.305819
0.40306148 -0.60459214 4.1062055
0.49835458 -0.64074165 4.3517213
0.56250858 -0.63282222 4.297935
0.6325326 -0.6325326 4.2959685
0.69802326 -0.62822092 4.2666845
0.73604876 -0.60222173 4.090106
0.80913085 -0.60684818 4.1215272
0.89986479 -0.62298334 4.2311125
0.99325633 -0.63852197 4.3366461
1.1068941 -0.66413647 4.510612
1.1045393 -0.62130338 4.2197027
1.0403187 -0.55075693 3.7405732
1.0666667 -0.53333336 3.6222372
0.99996573 -0.47366798 3.2170084
1.1612171 -0.52254772 3.5489845
1.3993926 -0.59973973 4.0732489
1.4698565 -0.60130489 4.0838795
1.5296818 -0.59857112 4.0653124
1.2477238 -0.46789646 3.1778097
1.2755357 -0.45919284 3.1186974
1.3303132 -0.460493 3.127528
1.3633137 -0.45443788 3.0864034
1.4140393 -0.45451257 3.0869107
1.4860384 -0.46118432 3.1322231
1.5291189 -0.4587357 3.1155927
1.7944602 -0.52097231 3.5382848
1.8395211 -0.51736528 3.513787
1.8735169 -0.51095921 3.4702787
1.9091209 -0.50535554 3.4322205
2.0202932 -0.51950395 3.5283122
1.610016 -0.402504 2.7336843
1.5619625 -0.37993678 2.5804148
1.6240401 -0.38464108 2.6123648
2.0115514 -0.46420419 3.1527331
2.0690353 -0.46553293 3.1617575
2.0939651 -0.4596509 3.1218085
2.1322758 -0.45691621 3.1032355
2.1683519 -0.45384109 3.0823503
2.2195075 -0.45399016 3.0833626
1.9315357 -0.38630715 2.6236801
1.8983343 -0.37141326 2.5225253
2.4286628 -0.46506307 3.1585665
-9.5071573 -1.5845262 12.10682
-9.418396 -1.6031312 12.248975
-9.4019957 -1.6351297 12.493464
-9.5601664 -1.6995851 12.985946
-9.9461374 -1.8083886 13.817276
-9.0291176 -1.6798359 12.83505
-9.6719637 -1.842279 14.076221
-8.2808685 -1.6157792 12.345613
-8.2914982 -1.6582997 12.670498
-8.5211945 -1.7479374 13.35539
-8.8102636 -1.8547925 14.171832
-8.107276 -1.7529244 13.393494
-8.167799 -1.8150665 13.868299
-8.2453985 -1.8846626 14.40006
-8.0842104 -1.9021672 14.533806
-7.5149002 -1.8217939 13.919702
-7.3197322 -1.829933 13.98189
-7.1388307 -1.842279 14.076221
-7.2000003 -1.9200001 14.670061
-6.9872942 -1.9275295 14.727591
-7.0853381 -2.0243824 15.467609
-5.8617668 -1.7368199 13.270444
-5.6168776 -1.7282701 13.205118
-5.1063828 -1.6340426 12.485158
-5.64533 -1.8817765 14.378008
-4.4917989 -1.5623648 11.937493
-4.4346461 -1.6125984 12.321311
-3.9995039 -1.5236206 11.641461
-3.5596755 -1.4238702 10.879303
-3.4909089 -1.4698564 11.230668
-3.6023455 -1.6010424 12.233015
-2.1896856 -1.0304402 7.87324
-1.7750813 -0.88754064 6.7813931
-2.4734299 -1.3191626 10.079268
-2.351449 -1.343685 10.266636
-1.6367214 -1.0072131 7.6957698
-1.4704428 -0.98029518 7.490099
-1.1373948 -0.82719624 6.3203225
-1.0343435 -0.82747477 6.3224506
-0.89100873 -0.79200774 6.0514593
-1.0502565 -1.0502565 8.0246487
-0.72820866 -0.83223844 6.3588481
-0.70512629 -0.94016832 7.1835032
-0.58469743 -0.93551582 7.1479549
-0.43282846 -0.86565691 6.6141872
-0.3093656 -0.82497483 6.3033495
-0.21520139 -0.86080557 6.5771198
-0.1047749 -0.8381992 6.4043922
0 -0.81296724 6.2116036
0.10274248 -0.82193983 6.28016
0.20058766 -0.80235064 6.1304855
0.29902661 -0.79740429 6.0926924
0.38496241 -0.76992482 5.882731
0.47495362 -0.75992584 5.8063321
0.43990451 -0.58653939 4.4815459
0.5010252 -0.57260019 4.3750415
0.56418729 -0.56418729 4.3107615
0.63325697 -0.56289512 4.3008881
0.70313579 -0.56250858 4.297935
0.73910767 -0.53753287 4.1071038
0.81126761 -0.5408451 4.1324115
0.9041431 -0.55639577 4.2512288
1.010289 -0.57730794 4.4110117
1.1157385 -0.59506053 4.5466533
1.1095259 -0.55476296 4.2387533
1.040526 -0.48965928 3.7413185
1.0681089 -0.47471511 3.627135
1.304896 -0.54942989 4.1980052
1.1651812 -0.46607244 3.5610995
1.3963637 -0.53194809 4.0644326
1.4782153 -0.53753287 4.1071038
1.5330007 -0.53321767 4.0741329
1.2435149 -0.41450498 3.1670902
1.2727875 -0.40729201 3.1119783
1.8177515 -0.55930811 4.2734814
1.3621942 -0.40361309 3.083869
1.4096361 -0.4027532 3.0772989
1.2930044 -0.35669085 2.7253523
1.5185368 -0.40494317 3.0940316
1.3777778 -0.35555556 2.7166779
1.8333458 -0.45833644 3.5019913
1.8621602 -0.45143279 3.4492428
1.9011284 -0.44732434 3.4178517
1.9826665 -0.45318088 3.4625995
1.5979195 -0.35509321 2.7131453
1.5686448 -0.33916643 2.5914543
1.6235883 -0.34180808 2.6116381
2.0217347 -0.41471481 3.1686935
2.072525 -0.41450498 3.1670902
2.1027043 -0.4102838 3.1348376
2.1340392 -0.40648362 3.1058018
2.160903 -0.40202847 3.0717614
2.2136915 -0.40248936 3.0752831
1.9385781 -0.34463611 2.6332462
1.9039613 -0.33112368 2.5300024
2.4393311 -0.4152053 3.172441
-10.55519 -1.5392985 13.44143
-10.477794 -1.5605224 13.626761
-10.337381 -1.5730798 13.736414
-9.9453249 -1.5470504 13.509121
-9.8304005 -1.5639273 13.656493
-9.4354296 -1.536 13.412627
-9.657485 -1.6095809 14.055148
-8.9454556 -1.5272728 13.336419
-8.9367275 -1.5639273 13.656493
-8.7707176 -1.5742314 13.746469
-8.8772631 -1.6352853 14.279603
-8.4320469 -1.5952522 13.930028
-8.2408352 -1.6023846 13.992309
-8.133131 -1.6266263 14.203992
-8.0592594 -1.6592592 14.488949
-7.6625857 -1.625397 14.193256
-7.4024096 -1.6192771 14.139817
-7.1981859 -1.625397 14.193256
-7.1386523 -1.6656855 14.545064
-6.9654422 -1.6813135 14.681531
-6.8375201 -1.70938 14.926612
-6.1531157 -1.5952522 13.930028
-6.0009017 -1.6156274 14.107947
-5.6346297 -1.5776962 13.776726
-5.7153487 -1.6669768 14.556339
-4.5205374 -1.3758157 12.013869
-4.5572491 -1.4500337 12.661954
-3.5701163 -1.1900387 10.391631
-3.0445986 -1.0656096 9.3050928
-2.9345403 -1.0811464 9.4407635
-3.6547256 -1.4212823 12.410891
-1.9249541 -0.79262811 6.9213705
-1.7591983 -0.76964927 6.720715
-2.3237519 -1.0844175 9.4693279
-2.2458487 -1.1229243 9.8055754
-1.6461666 -0.88639736 7.7401805
-1.4582279 -0.85063291 7.4278789
-1.1282805 -0.71799666 6.2696753
-1.0284566 -0.71991962 6.2864671
-0.89100873 -0.69300675 6.0514593
-1.0859921 -0.95024306 8.2976923
-0.71919739 -0.71919739 6.28016
-0.70324308 -0.82045025 7.1643181
-0.50327653 -0.70458716 6.1525812
-0.42548478 -0.74459839 6.501966
-0.30781561 -0.71823651 6.2717695
-0.21497551 -0.75241429 6.5702162
-0.10441876 -0.73093134 6.3826232
0 -0.70876735 6.1890831
0.10246831 -0.71727818 6.2634015
0.20026076 -0.70091265 6.1204948
0.2989296 -0.69750237 6.0907159
0.3876341 -0.67835963 5.9235578
0.37399563 -0.52359384 4.5721154
0.37894738 -0.44210526 3.8605423
0.50254738 -0.50254738 4.3883333
0.56483567 -0.49423119 4.3157153
0.63238794 -0.49185726 4.2949858
0.70233196 -0.49163234 4.2930217
0.73397052 -0.46707213 4.0785575
0.80612296 -0.47023836 4.1062055
0.90908259 -0.48950601 4.2744541
1.0230258 -0.51151288 4.4666219
1.1236284 -0.52435994 4.5788045
1.1245024 -0.49196982 4.2959685
1.0457349 -0.43059674 3.7600477
1.1092478 -0.43137413 3.7668362
1.0003085 -0.36853471 3.218111
1.167395 -0.40858829 3.5678658
1.3933477 -0.46444926 4.055654
1.4778919 -0.47023836 4.1062055
1.5211195 -0.46294942 4.0425572
1.7254388 -0.50325298 4.394495
nan nan nan
1.869663 -0.50337082 4.395524
1.5306146 -0.39682597 3.4651556
1.4052606 -0.35131514 3.0677466
1.2900088 -0.31138143 2.7190382
3.2167542 -0.7505759 6.5541635
1.5764277 -0.35596758 3.1083724
1.8395211 -0.40239522 3.513787
1.8649007 -0.395585 3.454319
1.8956081 -0.39027226 3.407927
2.0078433 -0.40156865 3.5065691
1.6095475 -0.31296754 2.7328887
1.5645424 -0.29599452 2.584677
1.624266 -0.29920688 2.6127281
2.0227587 -0.36305925 3.1702983
2.0763772 -0.36336601 3.172977
1.9935424 -0.34036091 2.9720922
2.1245513 -0.35409191 3.0919938
2.1500001 -0.35000002 3.0562627
2.1475692 -0.34165874 2.9834251
1.939394 -0.30168352 2.6343544
2.2145748 -0.33700049 2.9427485
2.4509251 -0.36503142 3.1875196
-11.028871 -1.3786088 14.044636
-10.91338 -1.3931973 14.193256
-10.770732 -1.404878 14.312254
-10.112656 -1.3483541 13.736414
-10.216781 -1.3931973 14.193256
-9.8505592 -1.3744967 14.002743
-9.7968111 -1.3995444 14.257917
-9.4275446 -1.3796407 14.055148
-9.3020439 -1.3953066 14.214745
-9.0421133 -1.3910943 14.171832
-8.9452877 -1.4124138 14.389025
-8.7501154 -1.4189377 14.455487
-8.5465221 -1.4244204 14.511343
-8.3803587 -1.436633 14.635758
-8.2632914 -1.4582279 14.855758
-7.9823627 -1.4513386 14.785573
-7.7772155 -1.4582279 14.855758
-7.4458175 -1.441126 14.681531
-7.3787031 -1.4757407 15.034169
-7.1441865 -1.4781075 15.058282
-6.9818187 -1.4961039 15.241622
-6.4297671 -1.4288372 14.556339
-6.1964312 -1.4299457 14.567632
-5.8760524 -1.4102526 14.367006
-5.8935256 -1.4733814 15.010134
-4.5350447 -1.1830552 12.052424
-4.8343349 -1.3184549 13.431815
-4.9021277 -1.4006079 14.268752
-2.2358079 -0.67074239 6.8332162
-2.8444445 -0.89824563 9.1509151
-4.1234903 -1.3744967 14.002743
-2.0078433 -0.70865059 7.2194071
-1.9170047 -0.71887678 7.3235874
-1.8127459 -0.72509837 7.38697
-2.2529075 -0.96553177 9.8363953
-1.6103226 -0.74322581 7.5716443
-1.4716169 -0.73580843 7.496079
-1.1416217 -0.62270266 6.3438101
-1.0392423 -0.62354541 6.3523946
-0.89129597 -0.59419733 6.0534101
-1.0602243 -0.79516822 8.1008101
-0.74254149 -0.63646412 6.484005
-0.71276098 -0.71276098 7.2612829
-0.58918297 -0.70701963 7.2027917
-0.44634944 -0.66952419 6.8208055
-0.31378958 -0.62757915 6.3934894
-0.21802698 -0.65408093 6.6634769
-0.10786517 -0.64719105 6.5932856
0 -0.61033112 6.2177739
0.10281125 -0.61686748 6.2843633
0.20052218 -0.60156655 6.1284847
0.29415897 -0.58831793 5.9935136
0.37832513 -0.56748772 5.7813048
0.34829932 -0.41795921 4.257977
0.40235758 -0.40235758 4.0990348
0.49858567 -0.42735916 4.3537393
0.56160879 -0.42120662 4.29106
0.63022566 -0.42015043 4.2803001
0.6977061 -0.41862369 4.2647462
0.73797768 -0.40253332 4.1008248
0.8110891 -0.40554455 4.1315022
0.89442331 -0.41281077 4.2055268
0.98574382 -0.4224616 4.3038454
1.1084918 -0.44339669 4.5171223
1.0893617 -0.40851066 4.1617193
1.1294117 -0.3986159 4.0609164
1.2 -0.40000001 4.075017
1.2916133 -0.40787786 4.155273
1.3310226 -0.39930677 4.0679545
1.4000001 -0.40000001 4.075017
1.4766003 -0.40270919 4.1026168
1.5390111 -0.40148115 4.090106
1.6859821 -0.42149553 4.2940035
5.242321 -1.258157 12.817528
5.9340272 -1.3693908 13.950727
6.1576838 -1.3683742 13.94037
6.3480444 -1.3602953 13.858065
4.3585129 -0.90176123 9.1867304
3.2450705 -0.64901412 6.6118584
nan nan nan
1.8467782 -0.34627092 3.5276494
1.8707511 -0.34013656 3.4651556
1.9025136 -0.33573774 3.420342
2.0317461 -0.34829932 3.5483141
1.5960745 -0.26601243 2.7100127
1.5619625 -0.25329119 2.5804148
1.6278901 -0.25703529 2.6185577
1.9934776 -0.30668885 3.1244056
2.053133 -0.30796993 3.1374567
2.0373988 -0.29815593 3.0374761
2.1259515 -0.30370739 3.0940316
2.1521018 -0.30029327 3.0592501
2.2003579 -0.30004883 3.0567601
2.2925375 -0.30567166 3.1140428
2.2682502 -0.29585874 3.0140734
2.3869069 -0.30471152 3.1042614
-11.256184 -1.1725191 14.334105
-11.055437 -1.1761103 14.378008
-10.912125 -1.1861004 14.500137
-10.278068 -1.1420075 13.961099
-10.185984 -1.1574981 14.150473
-9.7487822 -1.1335794 13.858065
-9.6864862 -1.1531532 14.097356
-9.3575039 -1.1411591 13.950727
-9.2113953 -1.1514244 14.076221
-8.9609575 -1.1488407 14.044636
-8.8235836 -1.1609977 14.193256
-8.6370821 -1.1671733 14.268752
-8.4421377 -1.1725191 14.334105
-8.3027029 -1.1861004 14.500137
-8.1599998 -1.2 14.670061
-7.9200006 -1.2 14.670061
-7.692019 -1.201878 14.693019
-7.3651977 -1.1879351 14.522566
-7.2000003 -1.2 14.670061
-7.081717 -1.2209857 14.926612
-6.8923078 -1.2307693 15.046216
-6.3123288 -1.1689497 14.29047
-6.12046 -1.1770115 14.389025
-5.7787814 -1.1557562 14.129178
-5.7555037 -1.1990633 14.658608
-4.6180391 -1.0039216 12.272992
-4.7261534 -1.0741259 13.131243
-4.854176 -1.1557562 14.129178
-2.3869462 -0.59673655 7.295135
-2.3024852 -0.60591716 7.4073677
-4.0569334 -1.1269259 13.776726
-2.0601182 -0.60591716 7.4073677
-1.9290423 -0.6028257 7.369575
-1.8148878 -0.60496259 7.3956981
-1.6465545 -0.58805513 7.1890039
-1.5980793 -0.6146459 7.5140767
-1.4593825 -0.60807604 7.4337602
-1.2912496 -0.58693159 7.1752687
-1.1698402 -0.58492011 7.1506772
-1.0880756 -0.60448647 7.3898773
-1.0163772 -0.63523573 7.765789
-0.81116563 -0.57940406 7.0832434
-0.72028142 -0.60023445 7.3378968
-0.59766537 -0.59766537 7.3064895
-0.48263943 -0.60329932 7.3753643
-0.34882665 -0.58137774 7.1073723
-0.21880342 -0.54700857 6.6872072
-0.10229771 -0.51148856 6.2529731
0 -0.49089167 6.0011754
0.1008867 -0.50443351 6.1667252
0.19351181 -0.48377958 5.9142294
0.28962916 -0.48271525 5.9012184
0.37281555 -0.46601945 5.6971111
0.46601945 -0.46601945 5.6971111
0.36070451 -0.30058712 3.6746924
0.5006752 -0.35762516 4.3719854
0.56212258 -0.35132664 4.2949858
0.63180995 -0.35100549 4.29106
0.69549465 -0.34774733 4.2512288
0.73063785 -0.33210814 4.0600386
0.79965293 -0.33318874 4.0732489
0.87848657 -0.33787942 4.1305933
1.019872 -0.36423999 4.4528522
1.1181753 -0.3727251 4.5565829
1.0769501 -0.3365469 4.1143026
1.0396974 -0.30579334 3.7383392
1.0900059 -0.30277944 3.7014937
1.271634 -0.33464053 4.0909972
1.1992973 -0.29982433 3.6653676
1.3936487 -0.33182111 4.05653
1.4740241 -0.33500546 4.0954585
1.5270369 -0.33196455 4.0582833
6.4000001 -1.3333334 16.300068
5.7399101 -1.147982 14.034139
1.7550428 -0.33750823 4.1260552
6.48 -1.2 14.670061
nan nan nan
nan nan nan
3.2855616 -0.54759359 6.6943593
1.5871999 -0.25600001 3.1296129
1.8440068 -0.28812605 3.5223556
1.8621602 -0.2821455 3.4492428
1.8990546 -0.27927274 3.4141233
1.9940653 -0.28486648 3.482507
1.6 -0.22222222 2.7166779
1.5600331 -0.21081528 2.5772274
1.6256232 -0.21389779 2.6149113
2.020371 -0.25902194 3.1665561
2.0672948 -0.25841185 3.1590979
2.07636 -0.25321466 3.0955617
2.1193166 -0.25229961 3.0843754
2.1605494 -0.25122669 3.071259
2.2415922 -0.25472638 3.1140428
1.929379 -0.21437545 2.6207507
1.9006321 -0.20659046 2.5255787
2.440568 -0.25963488 3.1740496
-11.120362 -0.92669684 14.161144
-10.921635 -0.92950076 14.203992
-10.746161 -0.93444872 14.279603
-10.224852 -0.90887576 13.888815
-9.997633 -0.90887576 13.888815
-9.6844578 -0.9008798 13.766626
-9.715662 -0.92530119 14.139817
-9.4204941 -0.91907257 14.044636
-9.2460499 -0.92460495 14.129178
-9.0489426 -0.92809671 14.182536
-8.8772631 -0.93444872 14.279603
-8.7299538 -0.94377881 14.422179
-8.5070772 -0.94523078 14.444367
-8.3091192 -0.94961363 14.511343
-8.2763872 -0.9736926 14.879301
-8.058506 -0.97678858 14.926612
-7.6382284 -0.95477855 14.59027
-7.3595057 -0.94961363 14.511343
-7.2395916 -0.96527886 14.750729
-7.0873513 -0.97756565 14.938487
-6.7996836 -0.97138345 14.844014
-6.1168141 -0.90619469 13.847845
-5.9384384 -0.91360599 13.961099
-5.577342 -0.89237475 13.636658
-5.5727892 -0.9287982 14.193256
-4.5702457 -0.79482538 12.145975
-4.5695744 -0.83083165 12.696198
-3.7075863 -0.70620692 10.791769
-2.4294186 -0.48588374 7.4249415
-2.3921311 -0.50360656 7.6957698
-3.4538412 -0.76752031 11.728718
-2.1126215 -0.49708739 7.596148
-1.9708099 -0.49270248 7.5291409
-2.4342313 -0.64912838 9.9195337
nan nan nan
-1.6280473 -0.50093764 7.654985
-1.4733814 -0.4911271 7.5050669
-1.279031 -0.4651022 7.1073723
-1.0901349 -0.43605396 6.6634769
-0.88700676 -0.39422524 6.0242791
-1.058854 -0.52942699 8.0903397
-0.78711569 -0.44978037 6.8732347
-0.72538376 -0.48358917 7.3898773
-0.60353637 -0.48282909 7.3782625
-0.50987554 -0.50987554 7.7915673
-0.30526668 -0.40702221 6.2198339
-0.21748672 -0.43497345 6.6469655
-0.1032258 -0.41290322 6.3097034
0 -0.4027532 6.1545978
0.10152016 -0.40608063 6.2054453
0.19673391 -0.39346781 6.0127048
0.29081732 -0.38775641 5.925427
0.37635529 -0.37635529 5.7512031
0.46715325 -0.37372261 5.7109723
0.42188144 -0.28125429 4.297935
0.49823913 -0.28470808 4.3507133
0.56148052 -0.28074026 4.2900796
0.63008207 -0.28003648 4.279325
0.69786459 -0.27914584 4.2657151
0.73926932 -0.2688252 4.1080022
0.81359529 -0.27119842 4.144268
0.89824563 -0.27638328 4.2234993
0.98732781 -0.28209364 4.3107615
1.0963597 -0.2923626 4.4676843
1.0925094 -0.27312735 4.1737447
1.131124 -0.26614684 4.0670733
1.2 -0.26666668 4.075017
1.2990875 -0.2734921 4.1793184
1.3333334 -0.26666668 4.075017
1.4030448 -0.26724663 4.0838795
1.4811308 -0.26929653 4.1152043
1.5366682 -0.26724663 4.0838795
1.6829034 -0.2804839 4.2861624
1.3161954 -0.21059127 3.218111
1.7884461 -0.27514553 4.2045851
1.4669968 -0.21733285 3.3211315
1.4297872 -0.20425533 3.1212895
1.2885162 -0.17772636 2.7158921
2.070081 -0.27601078 4.2178073
1.3747944 -0.17739281 2.7107952
1.8143965 -0.22679956 3.465795
1.8499271 -0.22423358 3.4265835
1.8887523 -0.22220615 3.3956017
1.9107873 -0.2183757 3.3370674
1.8992273 -0.21102525 3.2247429
1.5630362 -0.1689769 2.5821888
1.6226856 -0.170809 2.6101859
2.0490508 -0.21015906 3.2115064
2.100513 -0.21005128 3.2098594
2.1182644 -0.20665994 3.1580353
2.1411219 -0.20391637 3.1161098
2.1737041 -0.20220503 3.0899584
2.2905948 -0.2082359 3.1821179
1.9331563 -0.17183611 2.6258814
1.9078169 -0.16589713 2.535126
2.4859505 -0.21157026 3.2330713
-11.154009 -0.69712555 14.203992
-10.921635 -0.69712555 14.203992
-10.820215 -0.70566624 14.378008
-10.134897 -0.67565989 13.766626
-10.310298 -0.7029748 14.323172
-9.6561403 -0.67368424 13.726373
-9.955555 -0.71111113 14.488949
-9.4772015 -0.69345373 14.129178
-9.3801527 -0.70351148 14.334105
-9.0832453 -0.69871116 14.236299
-8.8907852 -0.70190406 14.301354
-8.7433844 -0.7089231 14.444367
-8.6197977 -0.7183165 14.635758
-8.3413496 -0.71497285 14.567632
-8.3291874 -0.73492825 14.974225
-8.0713377 -0.73375803 14.95038
-7.6680188 -0.71887678 14.647175
-7.3255386 -0.7089231 14.444367
-7.2681389 -0.72681385 14.808894
-7.0873513 -0.73317426 14.938487
-6.8212533 -0.73084855 14.891101
-6.1668406 -0.68520451 13.961099
-5.9918976 -0.69137281 14.08678
-5.6678967 -0.68014765 13.858065
-5.6670251 -0.70837814 14.433265
-4.5821013 -0.59766537 12.177483
-4.5944257 -0.62651259 12.765246
-4.729619 -0.67565989 13.766626
-2.3621683 -0.35432529 7.2194071
-2.2943397 -0.36226416 7.3811626
-3.9440801 -0.65734667 13.393494
-2.0576832 -0.36312056 7.398612
-1.9260188 -0.36112851 7.3580241
-1.8314786 -0.3662957 7.463306
-1.6365298 -0.35068494 7.1452351
-1.6051447 -0.37041798 7.547298
-1.4605389 -0.36513472 7.4396505
-1.2737278 -0.34738031 7.0779033
-1.1488407 -0.34465221 7.0223179
-1.0783151 -0.35943839 7.3235874
-1.0227216 -0.38352063 7.8142648
-0.79733038 -0.34171301 6.9624314
-0.7228235 -0.36141175 7.3637953
-0.60188085 -0.36112851 7.3580241
-0.47334364 -0.35500771 7.2333121
-0.34685737 -0.34685737 7.0672479
-0.21641423 -0.32462135 6.6141872
-0.10445426 -0.31336281 6.3847933
0 -0.30526668 6.2198339
0.1015873 -0.30476192 6.2095494
0.19635667 -0.29453501 6.0011754
0.29266432 -0.29266432 5.9630604
0.37797603 -0.28348202 5.77597
0.46376809 -0.27826089 5.6695886
0.43657038 -0.21828519 4.4475789
0.49974439 -0.21417616 4.3638573
0.56354046 -0.21132767 4.305819
0.63209873 -0.21069957 4.2930217
0.69961286 -0.20988384 4.276401
0.73894596 -0.20153074 4.1062055
0.81593621 -0.20398405 4.1561923
0.90393841 -0.20860118 4.2502666
1.0020504 -0.21472506 4.3750415
1.1127746 -0.22255494 4.5345755
1.1050359 -0.20719425 4.2216001
1.0370135 -0.18300238 3.728689
1.0654335 -0.17757225 3.6180496
1.2982206 -0.20498222 4.1765299
1.1725191 -0.17587787 3.5835264
1.3990892 -0.19986989 4.0723658
1.4724183 -0.20078431 4.0909972
1.5123287 -0.19726028 4.0191946
15.993059 -1.9991324 40.732491
nan nan nan
1.8107458 -0.20893222 4.2570114
1.5261085 -0.16956761 3.4549544
1.4070996 -0.15076068 3.0717614
1.2903824 -0.13348784 2.7198257
2.0831826 -0.20831826 4.2445021
1.7813692 -0.17239058 3.5124724
1.8398652 -0.17248738 3.5144446
1.8584052 -0.16894592 3.4422874
1.8990546 -0.16756363 3.4141233
1.9933259 -0.17085651 3.4812157
1.5965353 -0.13304462 2.7107952
1.5705956 -0.12734558 2.594677
1.6303911 -0.1287151 2.6225808
1.7849821 -0.13730632 2.7976277
1.810787 -0.13580902 2.7671201
2.1108093 -0.15444946 3.1469209
2.1217563 -0.15155402 3.0879259
2.1594899 -0.15066209 3.0697527
2.2580688 -0.15395923 3.1369324
1.9445773 -0.12963849 2.6413951
1.9034482 -0.12413793 2.5293207
2.6323428 -0.16802189 3.42346
-11.004179 -0.45850748 14.013192
-10.839641 -0.46126127 14.097356
-10.483087 -0.45578635 13.930028
-9.8954906 -0.43979958 13.44143
-10.147748 -0.46126127 14.097356
-9.6350117 -0.44814005 13.696337
-9.7745457 -0.46545455 14.225513
-9.2748165 -0.45243007 13.827451
-9.1769972 -0.45884991 14.023658
-9.0557823 -0.4643991 14.193256
-8.7573891 -0.46091524 14.08678
-8.5913839 -0.4643991 14.193256
-8.5399227 -0.47444016 14.500137
-8.2962971 -0.4740741 14.488949
-8.2242517 -0.48377955 14.785573
-7.932395 -0.48075119 14.693019
-7.6680188 -0.47925118 14.647175
-7.2807341 -0.46972477 14.356023
-7.2339087 -0.48226058 14.73915
-7.0092845 -0.48339891 14.77394
-6.8212533 -0.48723239 14.891101
-6.2130337 -0.46022472 14.065676
-5.9829216 -0.46022472 14.065676
-5.7142854 -0.45714286 13.971486
-5.6713848 -0.47261539 14.444367
-4.6000004 -0.40000001 12.225051
-4.6803327 -0.42548478 13.003932
-4.8071537 -0.45782417 13.992309
-2.4046969 -0.24046968 7.3493848
-2.3198729 -0.24419715 7.463306
-4.0215273 -0.44683638 13.656493
-2.0633743 -0.2427499 7.4190745
-1.9389349 -0.24236687 7.4073677
-1.8278462 -0.24371281 7.4485035
-1.6402746 -0.23432495 7.1615858
-1.6247356 -0.24995932 7.6394134
-1.4484874 -0.24141455 7.3782625
-1.3026985 -0.23685429 7.2388887
-1.1801767 -0.23603535 7.21386
-1.0997614 -0.24439141 7.4692435
-1.0409149 -0.26022872 7.9532733
-0.82327724 -0.23522206 7.1890039
-0.72339088 -0.24113029 7.369575
-0.60543948 -0.2421758 7.4015284
-0.48473373 -0.24236687 7.4073677
-0.34751132 -0.23167421 7.0805721
-0.21771793 -0.21771793 6.6540318
-0.10885897 -0.21771793 6.6540318
0 -0.20344371 6.2177739
0.10165454 -0.20330907 6.2136593
0.19641943 -0.19641943 6.0030937
0.28881231 -0.19254154 5.8845749
0.3707906 -0.1853953 5.6661673
0.36994219 -0.14797688 4.522562
0.43864825 -0.14621609 4.4687476
0.50009304 -0.14288373 4.3669019
0.56405789 -0.14101447 4.3097725
0.63282222 -0.14062715 4.297935
0.70265329 -0.14053065 4.2949858
0.73894596 -0.13435382 4.1062055
0.8175649 -0.13626081 4.1644883
0.90701795 -0.13954122 4.2647462
1.0039216 -0.14341737 4.3832116
1.1074262 -0.14765683 4.5127802
1.1163298 -0.13954122 4.2647462
1.0390768 -0.12224434 3.7361078
1.0850862 -0.12056515 3.6847875
1.3119353 -0.13809845 4.2206511
1.1916214 -0.11916214 3.6419079
1.3963637 -0.13298702 4.0644326
1.4688982 -0.13353619 4.0812168
1.513949 -0.13164775 4.0235009
14.894546 -1.2412121 37.934704
nan nan nan
1.8189933 -0.13992256 4.276401
1.5411372 -0.11415831 3.4889777
1.4006839 -0.10004885 3.0577557
1.2901955 -0.088978998 2.7194319
2.092643 -0.13950953 4.2637777
1.7863816 -0.11525042 3.5223556
1.842279 -0.11514243 3.5190551
1.8635294 -0.11294118 3.4517789
1.909819 -0.11234229 3.4334755
2.0195343 -0.11540195 3.5269868
1.5944636 -0.088581316 2.7072775
1.5598189 -0.084314533 2.5768735
1.6186355 -0.085191347 2.6036713
1.7881792 -0.091701493 2.8026385
1.819097 -0.090954848 2.779819
2.0243008 -0.098746389 3.0179489
2.11134 -0.10054001 3.0727668
2.1535051 -0.10016303 3.0612452
2.1875384 -0.099433564 3.0389509
1.9266899 -0.085630663 2.6170979
1.8891979 -0.082139045 2.5103848
2.6997757 -0.11488407 3.5111589
-9.9699802 -0.20770791 12.696198
-9.8287277 -0.20912185 12.782626
-9.6722794 -0.21026695 12.85262
-9.6806717 -0.21512605 13.149634
-9.7313175 -0.22116631 13.518847
-9.295989 -0.21618579 13.214411
-9.369935 -0.22309369 13.636658
-8.6091595 -0.20997949 12.83505
-8.6171112 -0.21542777 13.168077
-8.4431286 -0.21649049 13.233036
-8.4898911 -0.22341819 13.656493
-8.0214539 -0.21679606 13.251714
-8.0489092 -0.22358079 13.666432
-8.1024866 -0.23149963 14.150473
-7.7598815 -0.2282318 13.950727
-7.5653729 -0.22925374 14.013192
-7.3361197 -0.22925374 14.013192
-6.9972081 -0.2257164 13.796971
-7.1386523 -0.23795508 14.545064
-6.8581991 -0.23648961 14.455487
-6.6990652 -0.23925233 14.624359
-5.7321358 -0.21230131 12.976972
-5.5893636 -0.21497551 13.140432
-5.1682372 -0.20672949 12.636392
-5.4857144 -0.22857143 13.971486
-4.5061231 -0.19591838 11.97556
-4.5116158 -0.20507345 12.535166
-4.1486816 -0.19755627 12.075677
-2.4734299 -0.1236715 7.5594516
-3.6663318 -0.19296484 11.795024
-3.6000001 -0.2 12.225051
-2.1109135 -0.12417138 7.5900073
-1.9779477 -0.12362173 7.5564094
-2.5360484 -0.1690699 10.33444
-1.6650407 -0.11893148 7.2697167
-1.6448106 -0.1265239 7.7338047
-1.4828641 -0.12357201 7.55337
-1.3319669 -0.1210879 7.4015284
-1.2248805 -0.12248804 7.4871125
-1.1515203 -0.12794669 7.8207736
-1.0457872 -0.1307234 7.9905009
-0.83738315 -0.11962616 7.3121796
-0.72824967 -0.12137495 7.4190745
-0.61049283 -0.12209857 7.463306
-0.51869988 -0.12967497 7.9264154
-0.35859922 -0.11953308 7.3064895
-0.22220615 -0.11110307 6.7912035
-0.11010753 -0.11010753 6.7303505
0 -0.10105263 6.1768675
0.10162091 -0.10162091 6.2116036
0.19045258 -0.095226288 5.8207307
0.28226647 -0.094088823 5.7512031
0.37023199 -0.092557997 5.6576309
0.3694084 -0.073881678 4.516036
0.43667379 -0.07277897 4.4486327
0.49997678 -0.071425252 4.3658867
0.56366974 -0.070458718 4.306807
0.63311201 -0.070345774 4.2999034
0.70345777 -0.070345774 4.2999034
0.73749459 -0.067044966 4.0981402
0.81521451 -0.067934543 4.1525159
0.90516782 -0.069628291 4.2560468
1.0020504 -0.071575023 4.3750415
1.1045063 -0.073633753 4.5008817
1.0993513 -0.068709455 4.199883
1.0495176 -0.061736334 3.773649
1.0789464 -0.059941463 3.6639371
1.3031482 -0.068586744 4.1923819
1.1813114 -0.059065565 3.6103976
1.3948542 -0.066421628 4.0600386
1.4708161 -0.066855282 4.0865459
1.5178517 -0.065993555 4.0338726
1.6941178 -0.070588239 4.314724
1.4238043 -0.056952171 3.4812157
1.8050171 -0.069423735 4.2435431
1.5221876 -0.056377318 3.4460778
1.3984067 -0.049943097 3.0527844
1.2901955 -0.044489499 2.7194319
2.0831826 -0.069439419 4.2445021
1.7730777 -0.057196055 3.4961233
1.8289117 -0.057153489 3.4935215
1.8573837 -0.056284353 3.4403954
1.8918313 -0.055642094 3.4011371
1.9889013 -0.05682575 3.4734883
1.6058081 -0.04460578 2.7265396
1.5546985 -0.042018875 2.5684144
1.6256232 -0.042779557 2.6149113
1.7911198 -0.04592615 2.8072474
1.8234159 -0.045585398 2.7864189
1.9368292 -0.047239736 2.8875408
2.1127231 -0.05030293 3.0747793
2.1514008 -0.050032575 3.0582538
2.1316512 -0.048446618 2.9613118
1.93885 -0.043085556 2.6336155
2.1905441 -0.047620527 2.9108167
2.6318631 -0.055997085 3.4228358
-10.646642 0 13.55789
-10.320515 0 13.422215
-10.180981 0 13.528586
-9.8954906 0 13.44143
-10.005033 0 13.899096
-9.5930281 0 13.636658
-9.5857363 0 13.950727
-8.939106 0 13.326954
-8.9367275 0 13.656493
-8.700654 0 13.636658
-8.7311897 0 14.044636
-8.2544661 0 13.636658
-8.1859369 0 13.899096
-8.0842104 0 14.118555
-7.9307518 0 14.257917
-7.697494 0 14.257917
-7.4416351 0 14.214745
-7.1764879 0 14.150473
-7.1001544 0 14.466624
-6.8581991 0 14.455487
-6.7889504 0 14.820582
-6.0498905 0 13.696337
-5.9829216 0 14.065676
-5.7100372 0 13.961099
-5.6152325 0 14.301354
-4.5850749 0 12.185385
-4.5788622 0 12.722004
-4.631156 0 13.480027
-2.3869462 0 7.295135
-3.8834331 0 12.493464
-3.8214238 0 12.976972
-2.0496075 0 7.369575
-1.9222527 0 7.343636
-1.8077677 0 7.366684
-1.6721618 0 7.300808
-1.6038554 0 7.5412359
-1.4433829 0 7.352262
-1.2952088 0 7.1972699
-1.1770115 0 7.1945124
-1.0829613 0 7.3551421
-0.99861848 0 7.6301007
-0.82107681 0 7.1697893
-0.71887678 0 7.3235874
-0.60377365 0 7.3811626
-0.47757483 0 7.2979703
-0.35001901 0 7.1316667
-0.22076896 0 6.7472792
-0.10175555 0 6.2198339
0 0 6.0184865
0.10039216 0 6.1364961
0.19260189 0 5.8864193
0.28426898 0 5.7920041
0.37406394 0 5.716188
0.4565993 0 5.5819492
0.4404301 0 4.4869003
0.502078 0 4.3842349
0.56444651 0 4.3127418
0.63325697 0 4.3008881
0.69865817 0 4.270566
0.72205126 0 4.0123243
0.79533982 0 4.0512791
0.8547945 0 4.0191946
1.0259541 0 4.4794078
1.1111647 0 4.5280147
1.0753008 0 4.1080022
1.0550302 0 3.7934701
1.0973606 0 3.726469
1.2392356 0 3.986768
1.1669515 0 3.5665104
1.3942511 0 4.0582833
1.4512347 0 4.0321403
1.4953651 0 3.9741118
nan nan nan
1.4272439 0 3.4896259
1.7620119 0 4.1424394
1.5328776 0 3.4702787
1.400912 0 3.0582538
1.2903824 0 2.7198257
2.0521042 0 4.1811795
1.7743992 0 3.4987288
1.8336878 0 3.5026445
1.8563634 0 3.4385054
1.9059854 0 3.4265835
1.9955457 0 3.4850924
1.5880529 0 2.6963925
1.557041 0 2.5722847
1.6188601 0 2.6040325
1.7841847 0 2.7963779
1.806262 0 2.7602055
1.9533499 0 2.9121709
2.1165354 0 3.0803277
2.153856 0 3.0617442
2.4119916 0 3.3507633
1.9160082 0 2.6025887
1.9021672 0 2.5276184
2.6448801 0 3.4397652
-11.18786 0.23308043 14.2471
-10.758867 0.22891209 13.992309
-10.795417 0.23468296 14.345056
-10.194691 0.22654867 13.847845
-10.178313 0.2313253 14.139817
-9.6561403 0.22456141 13.726373
-9.8191786 0.23378997 14.29047
-9.120347 0.2224475 13.597159
-8.9956074 0.22489019 13.746469
-8.8746672 0.22755556 13.90939
-8.8302574 0.23237519 14.203992
-8.4008875 0.227051 13.87855
-8.4421377 0.23450382 14.334105
-8.1516304 0.23290372 14.236299
-8.028286 0.23612605 14.433265
-7.7742333 0.23558283 14.40006
-7.5041223 0.23450382 14.334105
-7.247489 0.23378997 14.29047
-7.1887679 0.23962559 14.647175
-6.9329185 0.23906615 14.612979
-6.7516484 0.24113029 14.73915
-6.3412843 0.23486239 14.356023
-6.0924487 0.23432495 14.323172
-5.752809 0.23011236 14.065676
-5.7286711 0.23869464 14.59027
-4.6916337 0.20398407 12.468577
-4.6481433 0.21127923 12.914496
-4.7192392 0.22472568 13.736414
-2.436162 0.1218081 7.4455504
-3.4334118 0.18070588 11.045692
-3.963871 0.22021505 13.460701
-2.0923078 0.12307692 7.523108
-1.9637235 0.12273272 7.5020685
-1.8314786 0.12209857 7.463306
-1.6741145 0.11957961 7.3093333
-1.6122729 0.12402099 7.5808144
-1.4646008 0.12205006 7.460341
-1.3200001 0.12 7.3350306
-1.201878 0.1201878 7.3465095
-1.1284899 0.12538776 7.6643581
-1.0365247 0.12956558 7.9197292
-0.82835138 0.11833591 7.2333121
-0.72169143 0.12028191 7.352262
-0.60759491 0.12151899 7.4278789
-0.49809489 0.12452372 7.6115437
-0.3551445 0.1183815 7.2360992
-0.23097746 0.11548873 7.0592775
-0.11540195 0.11540195 7.0539737
0 0.09871465 6.033958
0.10022838 0.10022838 6.1264853
0.18904616 0.09452308 5.7777472
0.28046256 0.093487523 5.7144485
0.36878753 0.092196882 5.6355577
0.37326854 0.074653707 4.5632267
0.43896165 0.073160276 4.4719405
0.49916434 0.071309194 4.3587923
0.56186557 0.070233196 4.2930217
0.63022566 0.070025072 4.2803001
0.6909582 0.06909582 4.2234993
0.72843289 0.06622117 4.0477858
0.79688722 0.066407263 4.0591607
0.8681739 0.066782609 4.0821037
1.0141004 0.072435744 4.4276533
1.1023924 0.073492825 4.4922676
1.0781312 0.0673832 4.1188149
1.040526 0.06120741 3.7413185
1.0827492 0.060152736 3.676851
1.2622837 0.066435985 4.0609164
1.177237 0.058861852 3.5979455
1.3969684 0.066522308 4.0661926
1.4568658 0.06622117 4.0477858
1.5097437 0.065641031 4.0123243
1.6703216 0.069596738 4.254118
1.4214325 0.056857303 3.4754169
1.7477462 0.067221008 4.108901
1.5317452 0.056731306 3.4677153
1.3956839 0.049845856 3.0468404
1.2894486 0.044463746 2.7178576
2.0375857 0.067919523 4.151598
1.7701116 0.057100374 3.4902747
1.8309555 0.05721736 3.4974256
1.8577241 0.056294668 3.4410257
1.9063332 0.056068625 3.4272089
1.9936956 0.056962732 3.4818614
1.5926267 0.044239629 2.7041585
1.5638967 0.042267475 2.5836101
1.6233625 0.042720068 2.611275
1.7831227 0.045721091 2.7947133
1.8083886 0.045209713 2.7634552
1.9347466 0.047188941 2.8844359
2.1082354 0.050196081 3.068248
2.1461575 0.049910642 3.0508006
2.1090343 0.047932599 2.9298921
1.9266899 0.042815331 2.6170979
1.9049878 0.041412778 2.5313666
3.1272256 0.06653671 4.0670733
-6.5159526 0.27149802 8.2976923
-6.2857637 0.26747933 8.1748705
-6.2527437 0.27185842 8.3087072
-9.4749823 0.42111036 12.870238
-9.4523067 0.42965034 13.131243
-8.8774185 0.41290322 12.619407
-9.1701498 0.43667379 13.345898
-8.1627998 0.39818534 12.16959
-8.1485415 0.40742704 12.452041
-8.0246487 0.41152045 12.577146
-8.3681726 0.4404301 13.460701
-7.6489906 0.41345897 12.636392
-7.6960335 0.42755744 13.067278
-7.946785 0.45410201 13.87855
-7.6406732 0.44945136 13.736414
-7.5093331 0.45511112 13.90939
-7.3142858 0.45714286 13.971486
-6.890883 0.4445731 13.587321
-6.8571429 0.45714286 13.971486
-6.6089025 0.45578635 13.930028
-6.6370368 0.4740741 14.488949
-5.7321358 0.42460263 12.976972
-5.5428176 0.42637059 13.031005
-5.2819805 0.42255846 12.914496
-5.3816061 0.44846717 13.706334
-4.6576138 0.4050099 12.378166
-4.5297589 0.41179627 12.585575
-4.2330709 0.4031496 12.321311
-4.0769739 0.40769741 12.460303
-3.7656775 0.3963871 12.114631
-3.6307287 0.40341431 12.329401
-2.088125 0.24566175 7.5080681
-1.9458433 0.24323042 7.4337602
-1.8177515 0.24236687 7.4073677
-1.6832877 0.24046968 7.3493848
-1.5968014 0.24566175 7.5080681
-1.4507675 0.24179459 7.3898773
-1.2863342 0.23387896 7.1479549
-1.1698402 0.23396802 7.1506772
-1.1059201 0.24576001 7.5110712
-1.0295769 0.25739422 7.8666434
-0.81055409 0.23158689 7.0779033
-0.71691948 0.23897317 7.3036475
-0.60353637 0.24141455 7.3782625
-0.48492503 0.24246252 7.4102912
-0.34659648 0.2310643 7.0619321
-0.22358079 0.22358079 6.8332162
-0.10944068 0.21888137 6.6895895
0 0.20324181 6.2116036
0.10138614 0.20277227 6.1972532
0.19062985 0.19062985 5.826149
0.28209364 0.18806244 5.7476821
0.36878753 0.18439376 5.6355577
0.36843368 0.14737347 4.5041203
0.43227017 0.14409006 4.4037704
0.4967429 0.14192654 4.3376479
0.56148052 0.14037013 4.2900796
0.62936485 0.13985886 4.2744541
0.69392365 0.13878474 4.2416258
0.73253852 0.13318881 4.0706
0.80559444 0.13426575 4.1035137
0.89342284 0.13744967 4.2008228
0.99142468 0.14163209 4.3286486
1.0753793 0.14338389 4.3821883
1.0922667 0.13653333 4.1728172
1.0411484 0.12248804 3.7435563
1.0925905 0.12139893 3.7102702
1.2816864 0.13491437 4.1233373
1.1988293 0.11988293 3.6639371
1.4079442 0.13408993 4.0981402
1.460644 0.13278581 4.0582833
1.5191573 0.13210063 4.0373421
17.982439 1.4985366 45.799213
1.4296352 0.11437082 3.4954724
1.7769077 0.13668521 4.1774588
1.5405647 0.1141159 3.4876816
nan nan nan
1.2892621 0.088914618 2.7174642
nan nan nan
1.7894025 0.11544532 3.5283122
